# This PCD file was generated using the MATLAB® pcwrite function
# from Computer Vision Toolbox®.
# .PCD v.7 - Point Cloud Data file format
VERSION .7
FIELDS x y z
SIZE 4 4 4
TYPE F F F
COUNT 1 1 1
WIDTH 1713
HEIGHT 1
VIEWPOINT 0 0 0 1 0 0 0
POINTS 1713
DATA ascii
-0.940581 7.772551 -0.410314
-2.585824 21.399351 4.976367
-0.938054 7.774420 -0.136687
-2.606145 21.630993 5.837923
-0.058329 0.489157 -0.131998
-1.034361 8.687305 0.152709
-2.525393 21.273230 1.122711
-0.991809 8.367239 0.737163
-0.081263 0.686590 -0.109504
-0.889283 7.524731 0.930351
-0.081887 0.693938 -0.085796
-0.890866 7.560799 1.205797
-0.100485 0.852820 -0.075128
-2.517608 21.399126 4.188258
-0.940476 8.005887 -0.422456
-2.510651 21.404377 4.975468
-0.938593 8.013995 -0.140841
-2.523896 21.582394 5.822393
-0.057065 0.493196 -0.133033
-2.448910 21.197762 0.372469
-2.453227 21.267597 1.121978
-0.963504 8.378568 0.737861
-0.078416 0.682944 -0.108878
-0.863009 7.527790 0.930351
-0.079690 0.696192 -0.086040
-0.865786 7.563712 1.205797
-0.092983 0.813576 -0.071642
-2.442677 21.405834 4.187876
-0.947115 8.312737 -0.438471
-2.436145 21.414944 4.975917
-0.948630 8.338938 -0.146495
-2.437709 21.462038 5.787712
-0.057496 0.512590 -0.138209
-2.377269 21.193844 0.372260
-2.376971 21.258167 1.121036
-0.852766 7.638688 -1.494035
-0.935582 8.393760 0.738906
-0.079214 0.710685 -0.113259
-0.838479 7.534557 0.930838
-0.077600 0.698425 -0.086283
-0.838949 7.562761 1.205171
-0.088388 0.798053 -0.070248
-2.370161 21.400158 4.185205
-0.946107 8.556037 -0.451136
-2.364267 21.415159 4.974118
-0.958512 8.696002 -0.152709
-2.362983 21.472336 5.788229
-0.055378 0.508937 -0.137174
-2.303279 21.202013 0.372260
-2.301456 21.254423 1.120408
-0.826160 7.629763 -1.491745
-0.905170 8.373046 0.736815
-0.077157 0.714886 -0.113884
-0.810895 7.525596 0.929376
-0.078135 0.726323 -0.089696
-0.810855 7.549931 1.202668
-0.096647 0.901371 -0.079312
-2.296696 21.420015 4.187494
-2.287837 21.407780 4.970519
-0.945545 8.862345 -0.155571
-2.285975 21.461243 5.783053
-0.051897 0.493766 -0.133033
-2.229250 21.209925 0.372260
-2.226432 21.254379 1.119990
-0.802479 7.686704 0.676154
-0.073717 0.707305 -0.112633
-0.784626 7.528380 0.929376
-0.077242 0.742387 -0.091646
-0.783473 7.542892 1.201104
-0.098432 0.949265 -0.083495
-2.216156 21.408758 4.183678
-2.209163 21.414083 4.970069
-0.731565 7.091279 -0.124436
-2.210249 21.461405 5.780982
-0.050173 0.493944 -0.133033
-0.723623 7.136314 0.125204
-0.722503 7.137681 0.375982
-0.719056 7.128458 0.626824
-0.072435 0.719350 -0.114510
-0.073530 0.732789 -0.090427
-0.096309 0.961497 -0.084541
-0.713932 7.140091 1.394814
-0.702618 7.039313 -0.370748
-2.133622 21.413906 4.968269
-0.703831 7.063941 -0.123912
-2.133977 21.455534 5.777359
-0.048072 0.490271 -0.131998
-0.694101 7.078970 0.124156
-0.693312 7.096428 0.373679
-0.688954 7.077384 0.622118
-0.069283 0.711722 -0.113259
-0.687892 7.079243 0.873316
-0.071483 0.736981 -0.090915
-0.688725 7.113651 1.131960
-0.093528 0.967777 -0.085064
-0.688178 7.120924 1.390616
-0.676204 7.009796 -0.369073
-2.062033 21.415047 4.966919
-0.673623 7.008630 -0.122900
-2.058717 21.459005 5.776324
-0.668632 7.073387 0.124017
-0.664228 7.053070 0.371271
-0.663804 7.061777 0.620549
-0.069751 0.743427 -0.118264
-0.661879 7.067766 0.871610
-0.068171 0.729320 -0.089940
-0.661689 7.092410 1.128206
-0.091983 0.985936 -0.086633
-0.663316 7.123282 1.390616
-0.653578 7.032001 -0.370120
-1.986372 21.412411 4.964670
-0.648046 6.998992 -0.122690
-1.983437 21.462214 5.775289
-0.641764 7.051779 0.123598
-0.637619 7.033466 0.370120
-0.645020 7.115106 -1.388708
-0.637895 7.050160 0.619329
-0.067511 0.747601 -0.118890
-0.635598 7.052240 0.869416
-0.066514 0.739439 -0.091158
-0.635163 7.075001 1.125077
-0.089610 0.998158 -0.087679
-0.636693 7.105999 1.386800
-0.130573 1.460162 -0.076829
-1.910755 21.409508 4.962420
-0.620416 6.965359 -0.122062
-1.907315 21.455536 5.771665
-0.614354 7.022103 0.123039
-0.612718 7.031669 0.369911
-0.617454 7.086020 -1.382602
-0.610863 7.024556 0.616888
-0.066950 0.771448 -0.122645
-0.610465 7.048482 0.868685
-0.064616 0.747578 -0.092133
-0.612329 7.098824 1.128518
-0.083386 0.966704 -0.084890
-0.610876 7.096443 1.384510
-0.110774 1.289475 -0.067827
-1.835838 21.414104 4.961970
-0.594736 6.951542 -0.121783
-1.831417 21.450514 5.768559
-0.587498 6.996307 0.122551
-0.588004 7.031775 0.369806
-0.590427 7.060742 -1.377259
-0.585678 7.018703 0.616191
-0.064257 0.771677 -0.122645
-0.585201 7.042657 0.867710
-0.062170 0.749777 -0.092377
-0.592108 7.156040 1.137279
-0.080011 0.966989 -0.084890
-0.584806 7.082879 1.381457
-0.106600 1.293835 -0.068037
-1.760444 21.412615 4.960171
-0.569811 6.945605 -0.121643
-1.755421 21.443300 5.764935
-0.561467 6.978384 0.122202
-0.562021 7.015866 0.368864
-0.564837 7.051018 -1.374970
-0.560537 7.012761 0.615494
-0.062191 0.779773 -0.123896
-0.558884 7.022890 0.865029
-0.060495 0.761863 -0.093839
-0.558230 7.045819 1.119445
-0.077107 0.973221 -0.085413
-0.559774 7.080963 1.380694
-0.103339 1.310127 -0.068874
-1.685989 21.422514 4.961071
-0.547446 6.971474 -0.122062
-1.680866 21.453148 5.765971
-0.538486 6.998245 0.122516
-0.536763 7.007828 0.368340
-0.541119 7.064692 -1.377259
-0.536812 7.024608 0.616365
-0.059469 0.779985 -0.123896
-0.534514 7.026778 0.865272
-0.057835 0.762069 -0.093839
-0.534678 7.061513 1.121635
-0.075364 0.995338 -0.087330
-0.535052 7.082874 1.380694
-0.098915 1.312472 -0.068979
-1.609013 21.399120 4.954322
-0.523256 6.975337 -0.122097
-1.605387 21.451180 5.763900
-0.513763 6.996093 0.122446
-0.513170 7.021610 0.368969
-0.515595 7.054790 -1.374970
-0.511859 7.020478 0.615842
-0.057606 0.792009 -0.125773
-0.510556 7.036520 0.866247
-0.055032 0.760286 -0.093596
-0.509881 7.061366 1.121322
-0.070741 0.979697 -0.085936
-0.510887 7.092531 1.382221
-1.534301 21.404608 4.954322
-0.496620 6.945207 -0.121539
-1.530514 21.456652 5.763900
-0.489756 7.003828 0.122551
-0.488797 7.025352 0.369073
-0.490422 7.048713 -1.373443
-0.486934 7.016259 0.615320
-0.054840 0.792206 -0.125773
-0.486402 7.044200 0.866979
-0.052377 0.760474 -0.093596
-0.484686 7.055220 1.120071
-0.068686 0.999815 -0.087679
-0.486396 7.098188 1.382984
-1.459437 21.407888 4.953872
-0.473189 6.958869 -0.121748
-1.454947 21.452227 5.761312
-0.464379 6.991528 0.122306
-0.465367 7.024940 0.368969
-0.466589 7.062136 -1.375733
-0.462310 7.015927 0.615145
-0.051298 0.780565 -0.123896
-0.460900 7.031990 0.865272
-0.049852 0.762633 -0.093839
-0.461807 7.064673 1.121322
-0.064678 0.992096 -0.086981
-0.460468 7.082211 1.379549
-0.084261 1.299484 -0.068246
-1.384589 21.410906 4.953422
-0.450370 6.964390 -0.121818
-1.382801 21.441513 5.757171
-0.441067 6.991034 0.122272
-0.440840 7.026523 0.368969
-0.442675 7.075477 -1.378023
-0.437815 7.017498 0.615145
-0.048709 0.780731 -0.123896
-0.437087 7.025554 0.864297
-0.047692 0.768738 -0.094571
-0.437020 7.064270 1.121009
-0.061705 1.000270 -0.087679
-0.436498 7.075861 1.378023
-0.080075 1.301750 -0.068351
-1.313336 21.411491 4.952522
-0.426055 6.965920 -0.121818
-1.308422 21.453920 5.759242
-0.417016 6.998520 0.122376
-0.415367 7.012068 0.368131
-0.418279 7.061228 -1.374970
-0.414543 7.018912 0.615145
-0.046912 0.796672 -0.126399
-0.412329 7.023074 0.863810
-0.043732 0.747101 -0.091889
-0.412357 7.065753 1.121009
-0.058676 1.008436 -0.088376
-0.412595 7.091061 1.380694
-0.075762 1.306009 -0.068560
-1.237682 21.400383 4.948924
-0.401968 6.971357 -0.121888
-1.233309 21.454498 5.758206
-0.392470 6.997936 0.122341
-0.390664 7.009488 0.367922
-0.393265 7.078395 -1.378023
-0.389037 7.024362 0.615494
-0.043557 0.788949 -0.125148
-0.388247 7.032398 0.864785
-0.041451 0.753195 -0.092621
-0.386826 7.051370 1.118507
-0.053741 0.982772 -0.086110
-0.386601 7.092526 1.380694
-0.070649 1.300295 -0.068246
-1.159137 21.402828 4.948473
-0.376548 6.952751 -0.121539
-1.158301 21.456743 5.757689
-0.366925 7.001325 0.122376
-0.366612 7.018786 0.368340
-0.367127 7.052277 -1.372680
-0.363687 7.009760 0.614099
-0.041006 0.793042 -0.125773
-0.362267 7.029809 0.864297
-0.038792 0.755325 -0.092864
-0.362211 7.052677 1.118507
-0.050921 0.994892 -0.087156
-0.362142 7.099714 1.381839
-0.066516 1.308513 -0.068665
-1.084119 21.400906 4.947124
-0.352274 6.954023 -0.121539
-1.082232 21.437504 5.751477
-0.343214 6.992516 0.122202
-0.341816 7.014039 0.368026
-0.342696 7.057437 -1.373443
-0.339218 7.010987 0.614099
-0.037231 0.769497 -0.122019
-0.339143 7.034937 0.864785
-0.036477 0.759415 -0.093352
-0.337970 7.061791 1.119758
-0.046689 0.979143 -0.085761
-0.337847 7.085188 1.378786
-0.061702 1.298751 -0.068141
-1.013057 21.402437 4.946674
-0.328188 6.959205 -0.121608
-1.007389 21.441151 5.751477
-0.318714 6.991674 0.122167
-0.317873 7.027161 0.368654
-0.319647 7.066380 -1.374970
-0.316144 7.016054 0.614448
-0.035076 0.781462 -0.123896
-0.314408 7.032113 0.864297
-0.033561 0.753588 -0.092621
-0.313316 7.062928 1.119758
-0.043707 0.985264 -0.086284
-0.313201 7.088285 1.379167
-0.056817 1.290977 -0.067723
-0.893286 20.377895 4.709126
-0.304070 6.964303 -0.121678
-0.294557 6.998738 0.122272
-0.292511 7.008272 0.367608
-0.294817 7.063529 -1.374206
-0.291650 7.017115 0.614448
-0.032348 0.781580 -0.123896
-0.289534 7.025233 0.863322
-0.031744 0.773535 -0.095058
-0.288819 7.067926 1.120384
-0.040755 0.997355 -0.087330
-0.288618 7.093259 1.379931
-0.052148 1.287176 -0.067513
-0.822064 20.378941 4.708675
-0.279840 6.967321 -0.121713
-0.816379 20.414946 5.474541
-0.269741 6.989732 0.122097
-0.268120 7.011247 0.367712
-0.270007 7.060592 -1.373443
-0.267155 7.018090 0.614448
-0.028872 0.761949 -0.120767
-0.265157 7.030169 0.863810
-0.029044 0.773641 -0.095058
-0.263705 7.057047 1.118507
-0.037348 0.999482 -0.087504
-0.263854 7.094223 1.379931
-0.048025 1.297330 -0.068037
-0.750569 20.371948 4.706426
-0.254929 6.952268 -0.121434
-0.745469 20.427324 5.477129
-0.245903 7.006619 0.122376
-0.243785 7.016132 0.367922
-0.245224 7.057568 -1.372680
-0.242382 7.011015 0.613751
-0.026483 0.769942 -0.122019
-0.240750 7.035020 0.864297
-0.026479 0.777706 -0.095546
-0.238934 7.053976 1.117881
-0.033252 0.981685 -0.085936
-0.239219 7.099025 1.380694
-0.043228 1.289505 -0.067618
-0.679448 20.374445 4.706426
-0.673591 20.412426 5.472470
-0.221000 6.993443 0.122132
-0.220644 7.020894 0.368131
-0.220585 7.058380 -1.372680
-0.217905 7.011818 0.613751
-0.023918 0.773978 -0.122645
-0.216315 7.039785 0.864785
-0.023946 0.783746 -0.096277
-0.215663 7.058679 1.118507
-0.029765 0.979804 -0.085761
-0.214261 7.093930 1.379549
-0.038786 1.291644 -0.067723
-0.608318 20.376694 4.706426
-0.605892 20.414547 5.472470
-0.197749 6.992139 0.122097
-0.196077 7.019625 0.368026
-0.196162 7.066957 -1.374206
-0.193650 7.020503 0.614448
-0.021024 0.762206 -0.120767
-0.192535 7.024589 0.862835
-0.020914 0.767946 -0.094327
-0.191130 7.063337 1.119132
-0.026612 0.989860 -0.086633
-0.190632 7.090676 1.378786
-0.034343 1.285776 -0.067409
-0.540808 20.380545 4.706876
-0.534572 20.414606 5.471952
-0.012101 0.484744 -0.129927
-0.173444 6.996785 0.122167
-0.172747 7.018240 0.367922
-0.173015 7.079345 -1.376496
-0.170369 7.021106 0.614448
-0.018791 0.780048 -0.123583
-0.168012 7.025218 0.862835
-0.017951 0.756107 -0.092864
-0.167708 7.063932 1.119132
-0.023376 0.991935 -0.086807
-0.165969 7.095224 1.379549
-0.029994 1.291879 -0.067723
-0.469344 20.368673 4.703727
-0.032661 1.417408 -0.024748
-0.466832 20.414335 5.471435
-0.010575 0.492509 -0.131998
-0.150239 6.997322 0.122167
-0.148077 7.010813 0.367503
-0.148057 7.068128 -1.374206
-0.145858 7.021658 0.614448
-0.016287 0.784055 -0.124209
-0.144794 7.029706 0.863322
-0.015768 0.772040 -0.094814
-0.142887 7.056575 1.117881
-0.019993 0.995994 -0.087156
-0.142398 7.093772 1.379167
-0.025869 1.299958 -0.068141
-0.401762 20.368168 4.703277
-0.026462 1.353535 -0.023631
-0.395574 20.415840 5.471435
-0.008801 0.484815 -0.129927
-0.126135 7.015798 0.122481
-0.123820 7.023269 0.368131
-0.124965 7.088210 -1.378023
-0.122362 7.010151 0.613402
-0.013448 0.778182 -0.123270
-0.120396 7.038108 0.864297
-0.012938 0.764151 -0.093839
-0.118252 7.057031 1.117881
-0.016557 0.988087 -0.086458
-0.117738 7.100115 1.380312
-0.021265 1.296047 -0.067932
-0.330530 20.361654 4.701477
-0.021449 1.335624 -0.023316
-0.324117 20.405508 5.468329
-0.007109 0.484843 -0.129927
-0.101588 7.012197 0.122411
-0.099274 7.021661 0.368026
-0.100109 7.080751 -1.376496
-0.097893 7.010535 0.613402
-0.010649 0.772299 -0.122332
-0.095880 7.042455 0.864785
-0.010431 0.776101 -0.095302
-0.093724 7.065301 1.119132
-0.013108 0.988138 -0.086458
-0.092849 7.092631 1.378786
-0.016741 1.296113 -0.067932
-0.259457 20.362682 4.701477
-0.016610 1.321694 -0.023072
-0.252834 20.402651 5.467294
-0.005546 0.496455 -0.133033
-0.077024 7.004510 0.122272
-0.074764 7.021965 0.368026
-0.075352 7.077131 -1.375733
-0.073547 7.022788 0.614448
-0.007994 0.776282 -0.122957
-0.071177 7.030837 0.863322
-0.007781 0.782088 -0.096033
-0.069059 7.065586 1.119132
-0.009775 1.000132 -0.087504
-0.067998 7.083096 1.376878
-0.012123 1.286178 -0.067409
-0.188515 20.379053 4.705076
-0.011815 1.301748 -0.022723
-0.181696 20.411137 5.469365
-0.003872 0.504198 -0.135104
-0.052631 7.012735 0.122411
-0.050251 7.022183 0.368026
-0.050786 7.096983 -1.379549
-0.049031 7.023002 0.614448
-0.005298 0.778280 -0.123270
-0.046606 7.027072 0.862835
-0.004935 0.764245 -0.093839
-0.044397 7.065784 1.119132
-0.006322 1.006137 -0.088027
-0.043295 7.087216 1.377641
-0.007609 1.282218 -0.067199
-0.117292 20.363998 4.701477
-0.007260 1.299782 -0.022688
-0.110421 20.407782 5.468329
-0.002096 0.500345 -0.134068
-0.028169 7.016875 0.122481
-0.026919 7.010328 0.367398
-0.025982 7.089264 -1.378023
-0.024531 7.027115 0.614797
-0.002575 0.776319 -0.122957
-0.022100 7.035132 0.863810
-0.002280 0.768227 -0.094327
-0.020955 7.061941 1.118507
-0.002843 1.018107 -0.089073
-0.018543 7.083398 1.376878
-0.003134 1.282236 -0.067199
-0.046193 20.360388 4.700577
-0.002931 1.291800 -0.022549
-0.042744 20.409967 5.468847
-0.000352 0.504213 -0.135104
-0.004898 7.016930 0.122481
-0.002455 7.024360 0.368131
-0.001236 7.085385 -1.377259
0.000000 7.011219 0.613402
0.000000 0.786200 -0.124522
0.001225 7.035167 0.863810
0.000269 0.770216 -0.094571
0.003693 7.054070 1.117255
0.000705 1.010141 -0.088376
0.004952 7.093236 1.378786
0.001122 1.286234 -0.067409
0.021320 20.360428 4.700577
0.001571 1.285803 -0.022444
0.028483 20.400335 5.466259
0.001330 0.508075 -0.136139
0.019594 7.016904 0.122481
0.022079 7.028320 0.368340
0.023534 7.097126 -1.379549
0.023262 7.015165 0.613751
0.002730 0.782244 -0.123896
0.025813 7.043060 0.864785
0.003041 0.792046 -0.097252
0.028347 7.061915 1.118507
0.004148 0.990209 -0.086633
0.030900 7.081391 1.376496
0.005864 1.292213 -0.067723
0.092246 20.329048 4.693378
0.006078 1.289789 -0.022514
0.099642 20.388521 5.463153
0.003241 0.515794 -0.138209
0.045391 7.028783 0.122690
0.047824 7.026195 0.368236
0.049602 7.104845 -1.381076
0.049031 7.023002 0.614448
0.005626 0.786180 -0.124522
0.051567 7.034978 0.863810
0.005959 0.794015 -0.097495
0.054262 7.065714 1.119132
0.007870 1.002141 -0.087679
0.056885 7.085157 1.377259
0.010535 1.284194 -0.067304
0.166600 20.309088 4.688880
0.010805 1.289758 -0.022514
0.173951 20.339722 5.450212
0.005093 0.511915 -0.137174
0.013218 1.305734 0.022793
0.072269 7.017997 0.367817
0.074405 7.104628 -1.381076
0.074770 7.022775 0.614448
0.008571 0.792080 -0.125460
0.077313 7.030772 0.863322
0.008513 0.774139 -0.095058
0.078968 7.069433 1.119758
0.011911 1.049922 -0.091862
0.081641 7.086878 1.377641
0.015017 1.284150 -0.067304
0.237487 20.308382 4.688880
0.245164 20.356377 5.454870
0.006688 0.504169 -0.135104
0.017494 1.301684 0.022723
0.095570 7.019715 0.367922
0.097963 7.104342 -1.381076
0.098112 7.026473 0.614797
0.011310 0.799948 -0.126712
0.100739 7.038417 0.864297
0.010966 0.766167 -0.094083
0.102295 7.061231 1.118507
0.016153 1.101673 -0.096394
0.105198 7.090495 1.378404
0.019335 1.288087 -0.067513
0.305060 20.323071 4.692479
0.312663 20.355452 5.454870
0.008488 0.511870 -0.137174
0.021844 1.303618 0.022758
0.120137 7.023333 0.368131
0.122352 7.080402 -1.376496
0.121345 7.022125 0.614448
0.013997 0.801881 -0.127025
0.124074 7.038044 0.864297
0.013782 0.774063 -0.095058
0.126945 7.060831 1.118507
0.021083 1.161372 -0.101624
0.129910 7.088121 1.378023
0.023831 1.288012 -0.067513
0.376401 20.343317 4.697428
0.024161 1.293577 -0.022583
0.384875 20.416044 5.471435
0.010286 0.507973 -0.136139
0.026050 1.275540 0.022269
0.145966 7.026839 0.368340
0.148136 7.072054 -1.374970
0.146997 7.017649 0.614099
0.016644 0.788000 -0.124835
0.149874 7.037542 0.864297
0.016533 0.770038 -0.094571
0.152992 7.068218 1.119758
0.022427 1.027828 -0.089945
0.155757 7.081709 1.376878
0.028596 1.289912 -0.067618
0.451259 20.355438 4.700577
0.028857 1.291481 -0.022549
0.462751 20.549692 5.507669
0.012240 0.511794 -0.137174
0.031063 1.289430 0.022514
0.171718 7.026257 0.368340
0.173207 7.087195 -1.378023
0.172915 7.025030 0.614797
0.019531 0.787933 -0.124835
0.175467 7.029007 0.863322
0.019854 0.789817 -0.097008
0.179000 7.071559 1.120384
0.025410 1.003843 -0.087853
0.180378 7.077197 1.376115
0.032894 1.281818 -0.067199
0.525968 20.357542 4.701477
0.033434 1.285369 -0.022444
0.538567 20.567171 5.512846
0.014132 0.515611 -0.138209
0.193695 7.022259 0.122621
0.196189 7.023618 0.368236
0.198276 7.098322 -1.380312
0.197434 7.024384 0.614797
0.022338 0.789835 -0.125148
0.200004 7.028352 0.863322
0.021986 0.767916 -0.094327
0.203681 7.070891 1.120384
0.028397 0.985824 -0.086284
0.205367 7.086337 1.378023
0.037368 1.281696 -0.067199
0.596678 20.343895 4.698778
0.038098 1.291241 -0.022549
0.609894 20.549717 5.508705
0.015812 0.511696 -0.137174
0.218208 7.021541 0.122621
0.219353 7.018936 0.368026
0.222681 7.085813 -1.378023
0.222080 7.027635 0.615145
0.025095 0.789752 -0.125148
0.224788 7.035548 0.864297
0.024603 0.765851 -0.094083
0.226623 7.054382 1.117881
0.032417 1.003641 -0.087853
0.230228 7.089501 1.378786
0.042103 1.289542 -0.067618
0.667950 20.349480 4.700577
0.042182 1.285112 -0.022444
0.678679 20.566891 5.513881
0.017731 0.515500 -0.138209
0.241627 7.024776 0.122690
0.243990 7.022120 0.368236
0.247549 7.088917 -1.378786
0.246469 7.022834 0.614797
0.027852 0.793613 -0.125773
0.248256 7.038731 0.864785
0.027564 0.777668 -0.095546
0.251388 7.057497 1.118507
0.035635 0.995557 -0.087156
0.254016 7.096546 1.380312
0.046594 1.295384 -0.067932
0.735503 20.349100 4.701027
0.046885 1.290952 -0.022549
0.749899 20.548952 5.509740
0.018567 0.492272 -0.131998
0.265691 7.011899 0.122481
0.268654 7.025217 0.368445
0.271207 7.091981 -1.379549
0.269754 7.021978 0.614797
0.030089 0.779693 -0.123583
0.272980 7.041789 0.865272
0.030819 0.791452 -0.097252
0.276329 7.064472 1.119758
0.038392 0.981498 -0.085936
0.278479 7.087770 1.378786
0.051036 1.293217 -0.067827
0.806680 20.350302 4.701927
0.051392 1.290781 -0.022549
0.822169 20.559719 5.513364
0.020285 0.492204 -0.131998
0.290167 7.010930 0.122481
0.293340 7.028228 0.368654
0.295960 7.090991 -1.379549
0.294433 7.024975 0.615145
0.032810 0.779584 -0.123583
0.297222 7.032860 0.864297
0.033329 0.785390 -0.096521
0.301154 7.067411 1.120384
0.042496 0.997282 -0.087330
0.302881 7.078908 1.377259
0.055207 1.285050 -0.067409
0.878043 20.355152 4.703727
0.056762 1.310572 -0.022898
0.892164 20.516193 5.502493
0.314640 7.009874 0.122481
0.317332 7.015189 0.368026
0.320357 7.082069 -1.378023
0.319135 7.027885 0.615494
0.035261 0.773544 -0.122645
0.321590 7.027813 0.863810
0.035160 0.765439 -0.094083
0.326002 7.070263 1.121009
0.045609 0.989167 -0.086633
0.328045 7.087614 1.379167
0.059971 1.290834 -0.067723
0.948178 20.332495 4.699228
0.060869 1.300378 -0.022723
1.151004 24.497835 6.571416
0.023349 0.484332 -0.129927
0.339492 7.016722 0.122621
0.342108 7.020023 0.368340
0.344693 7.073064 -1.376496
0.343664 7.026728 0.615494
0.038252 0.779336 -0.123583
0.346704 7.038544 0.865272
0.037832 0.765311 -0.094083
0.350291 7.061191 1.119758
0.048766 0.983032 -0.086110
0.352782 7.086426 1.379167
0.064975 1.300591 -0.068246
1.018956 20.325171 4.698328
0.350152 6.960136 -0.121643
1.029918 20.401421 5.473505
0.025750 0.499687 -0.134068
0.362964 7.019552 0.122690
0.365591 7.022840 0.368550
0.368961 7.087568 -1.379549
0.366546 7.017591 0.614797
0.041250 0.787095 -0.124835
0.370042 7.037356 0.865272
0.040474 0.767164 -0.094327
0.373706 7.059990 1.119758
0.051499 0.972916 -0.085238
0.377011 7.098940 1.381839
0.069074 1.296380 -0.068037
1.084381 20.284706 4.689780
0.372908 6.952947 -0.121539
1.094033 20.332304 5.455906
0.386254 6.996279 0.122306
0.390549 7.029497 0.368969
0.394137 7.094077 -1.381076
0.391485 7.024226 0.615494
0.043335 0.775113 -0.122957
0.395051 7.043949 0.866247
0.043040 0.765036 -0.094083
0.398788 7.066531 1.121009
0.054109 0.958806 -0.084018
0.401232 7.087781 1.379931
0.073147 1.288154 -0.067618
1.157605 20.323597 4.699677
0.397973 6.965578 -0.121783
1.165447 20.336075 5.457976
0.410906 6.998881 0.122376
0.415321 7.032079 0.369178
0.418436 7.084819 -1.379549
0.416001 7.022817 0.615494
0.046509 0.782844 -0.124209
0.419166 7.034601 0.865272
0.045710 0.764881 -0.094083
0.423455 7.065096 1.121009
0.059244 0.988444 -0.086633
0.425972 7.086337 1.379931
0.076921 1.275929 -0.066990
1.230428 20.350557 4.706876
0.423739 6.988099 -0.122202
1.239001 20.374308 5.469365
0.436577 7.017362 0.122725
0.439112 7.018626 0.368550
0.443404 7.087234 -1.380312
0.441013 7.029276 0.616191
0.048870 0.776763 -0.123270
0.443464 7.029132 0.864785
0.047879 0.756792 -0.093108
0.448866 7.075404 1.122887
0.062694 0.988231 -0.086633
0.450950 7.088726 1.380694
0.081248 1.273660 -0.066885
1.301213 20.342247 4.705976
0.446845 6.966621 -0.121853
1.316070 20.462395 5.494211
0.461331 7.019786 0.122795
0.464401 7.029008 0.369178
0.467625 7.077807 -1.378786
0.465813 7.031670 0.616540
0.051973 0.782500 -0.124209
0.468791 7.039426 0.866247
0.049991 0.748698 -0.092133
0.472768 7.061968 1.121009
0.066449 0.989982 -0.086807
0.475693 7.087108 1.380694
0.086230 1.281339 -0.067304
1.372209 20.337582 4.705976
0.470622 6.957038 -0.121713
1.388802 20.476952 5.499387
0.485830 7.018133 0.122795
0.488378 7.019375 0.368759
0.493015 7.068212 -1.377259
0.490746 7.017990 0.615494
0.054841 0.782305 -0.124209
0.493359 7.037747 0.866247
0.052743 0.750499 -0.092377
0.497696 7.064216 1.121635
0.068220 0.965895 -0.084715
0.502080 7.091192 1.381839
0.091208 1.284999 -0.067513
1.446884 20.334360 4.706426
0.495048 6.957347 -0.121748
1.461082 20.483541 5.502493
0.511260 7.012317 0.122725
0.514979 7.029489 0.369387
0.517974 7.070364 -1.378023
0.515239 7.016234 0.615494
0.056847 0.772258 -0.122645
0.519444 7.039851 0.866735
0.055201 0.746341 -0.091889
0.523582 7.062345 1.121635
0.070118 0.945782 -0.082972
0.526395 7.083522 1.380694
0.096583 1.296624 -0.068141
1.518577 20.338903 4.708675
0.520841 6.959476 -0.121818
1.537030 20.489605 5.505599
0.535733 7.010489 0.122725
0.539818 7.031631 0.369597
0.543250 7.076343 -1.379549
0.540337 7.022339 0.616191
0.059086 0.766147 -0.121706
0.543095 7.026120 0.865272
0.058725 0.758019 -0.093352
0.548845 7.068352 1.122887
0.075115 0.967382 -0.084890
0.551726 7.089471 1.382221
0.541111 6.937379 -0.364677
1.590480 20.345135 4.711375
0.545442 6.961601 -0.121888
1.606724 20.461004 5.499387
0.560363 7.010570 0.122760
0.562497 7.021839 0.369178
0.568578 7.082231 -1.381076
0.565168 7.024383 0.616540
0.061601 0.763967 -0.121393
0.568259 7.032095 0.866247
0.058681 0.726162 -0.089452
0.573237 7.078306 1.124764
0.078169 0.963142 -0.084541
0.577108 7.095329 1.383747
0.566296 6.947393 -0.365305
1.657301 20.331980 4.709575
0.569015 6.965734 -0.121992
1.676454 20.478670 5.505599
0.584104 7.014651 0.122865
0.586442 7.027896 0.369597
0.591078 7.068568 -1.378786
0.588460 7.022470 0.616540
0.065291 0.777537 -0.123583
0.591910 7.034128 0.866735
0.060090 0.714095 -0.087990
0.595712 7.064556 1.122887
0.079853 0.945010 -0.082972
0.600967 7.097290 1.384510
0.587813 6.927565 -0.364363
1.724391 20.322489 4.708675
0.591601 6.957831 -0.121888
1.745672 20.488396 5.509740
0.607533 7.014668 0.122900
0.610972 7.025806 0.369597
0.615027 7.072437 -1.379931
0.611740 7.020480 0.616540
0.068042 0.779284 -0.123896
0.615577 7.036082 0.867222
0.063102 0.719813 -0.088721
0.620713 7.066368 1.123512
0.083850 0.952664 -0.083670
0.625187 7.103080 1.386037
0.612185 6.941494 -0.365200
1.796687 20.331875 4.712275
0.616240 6.959707 -0.121957
1.816492 20.474480 5.507669
0.631658 7.008521 0.122830
0.635851 7.027609 0.369806
0.642007 7.081867 -1.382221
0.637472 7.018190 0.616540
0.067675 0.743619 -0.118264
0.640852 7.041799 0.868197
0.065975 0.723542 -0.089208
0.646455 7.075962 1.125390
0.085540 0.934509 -0.082101
0.650139 7.089010 1.383747
0.637625 6.939203 -0.365200
1.870834 20.321272 4.711375
0.641078 6.963488 -0.122062
1.887236 20.460321 5.505599
0.657153 7.004169 0.122795
0.662355 7.033185 0.370225
0.667645 7.089355 -1.384128
0.662336 7.019890 0.616888
0.069526 0.735512 -0.117013
0.665911 7.031497 0.867222
0.066376 0.699581 -0.086283
0.672010 7.069613 1.124764
0.661665 6.947906 -0.610613
0.674882 7.086698 1.383747
0.661459 6.932960 -0.364991
1.942689 20.324316 4.713624
0.667742 6.973035 -0.122272
1.964424 20.476345 5.511811
0.682956 7.015763 0.123039
0.686512 7.026855 0.370015
0.694005 7.090769 -1.384892
0.688843 7.025346 0.617586
0.070291 0.715593 -0.113884
0.690838 7.033081 0.867710
0.066679 0.677614 -0.083602
0.697848 7.079018 1.126641
0.684345 6.929692 -0.609219
0.702010 7.095899 1.386037
0.686870 6.930489 -0.364991
2.016587 20.311245 4.712275
0.692077 6.970662 -0.122272
2.033981 20.450136 5.506634
0.708664 7.013213 0.123039
0.712667 7.028265 0.370225
0.717962 7.080490 -1.383365
0.713760 7.026863 0.617934
0.069989 0.687830 -0.109504
0.717015 7.034452 0.868197
0.066541 0.651692 -0.080434
0.722984 7.068552 1.125390
0.709343 6.935189 -0.609916
0.726977 7.095358 1.386418
0.711869 6.935997 -0.365410
2.087280 20.302141 4.711825
0.716803 6.960121 -0.122132
2.102572 20.381054 5.490070
0.733558 7.014675 0.123109
0.737194 7.025735 0.370225
0.741852 7.070131 -1.381839
0.737870 7.020366 0.617586
0.070734 0.671866 -0.107001
0.742397 7.039802 0.869172
0.069441 0.657378 -0.081165
0.747655 7.065986 1.125390
0.733549 6.932670 -0.609916
0.752566 7.100586 1.387945
0.736499 6.937441 -0.365619
2.156698 20.281166 4.708675
0.740669 6.953600 -0.122062
2.166330 20.304434 5.471435
0.757178 7.004119 0.122970
0.760917 7.027224 0.370434
0.768858 7.088968 -1.386037
0.762799 7.021709 0.617934
0.069233 0.636266 -0.101370
0.767828 7.045061 0.870147
0.070330 0.645304 -0.079703
0.772364 7.075251 1.127267
0.759255 6.943932 -0.611136
0.776708 7.092062 1.386800
0.761581 6.942770 -0.366038
2.226477 20.297150 4.714074
0.765033 6.963032 -0.122272
2.235346 20.312500 5.475576
0.780399 7.001570 0.122970
0.785104 7.032601 0.370853
0.792142 7.084428 -1.385655
0.786966 7.027061 0.618631
0.072664 0.647812 -0.103247
0.790298 7.034585 0.869172
0.072691 0.647040 -0.079946
0.795824 7.072650 1.127267
0.782726 6.945336 -0.611485
0.800440 7.091398 1.387182
0.783255 6.928298 -0.365410
2.296624 20.314827 4.719923
0.789021 6.968405 -0.122411
2.310090 20.370241 5.493176
0.804527 7.006889 0.123109
0.809192 7.025849 0.370643
0.816081 7.085662 -1.386418
0.810266 7.024413 0.618631
0.072998 0.631869 -0.100744
0.814079 7.035870 0.869660
0.074264 0.640866 -0.079215
0.821417 7.077678 1.128518
0.807887 6.950477 -0.612182
0.824181 7.090654 1.387563
0.806686 6.929631 -0.365619
2.367743 20.308622 4.720373
0.814502 6.975539 -0.122586
2.395986 20.488693 5.527340
0.829453 7.008010 0.123179
0.834182 7.026949 0.370853
0.841581 7.078725 -1.385655
0.836950 7.029309 0.619329
0.076717 0.643366 -0.102621
0.839103 7.036928 0.870147
0.076030 0.636661 -0.078728
0.845650 7.070844 1.127893
0.832853 6.953549 -0.612705
0.851097 7.095383 1.389090
0.833034 6.934559 -0.366038
2.443797 20.313353 4.723522
0.837412 6.960742 -0.122376
2.471193 20.510891 5.535622
0.856343 7.014848 0.123354
0.860415 7.027809 0.371062
0.866045 7.073796 -1.385273
0.860511 7.018435 0.618631
0.080406 0.654858 -0.104498
0.865856 7.041687 0.871122
0.078363 0.636378 -0.078728
0.871559 7.067698 1.127893
0.856632 6.946646 -0.612356
0.876343 7.096266 1.389853
0.857969 6.937556 -0.366352
2.516121 20.316301 4.726222
0.862920 6.957625 -0.122376
2.544919 20.490194 5.532516
0.880078 7.005863 0.123249
0.885942 7.032689 0.371481
0.892697 7.086312 -1.388326
0.885505 7.019341 0.618980
0.080711 0.638895 -0.101995
0.891928 7.050437 0.872585
0.081831 0.645948 -0.079946
0.896720 7.068532 1.128518
0.881375 6.947566 -0.612705
0.900612 7.089269 1.389090
0.882182 6.934518 -0.366352
2.587758 20.313194 4.727571
0.887200 6.954571 -0.122376
2.618882 20.500347 5.537693
0.904783 7.004732 0.123284
0.912023 7.041438 0.372109
0.915409 7.067577 -1.385273
0.911025 7.024111 0.619677
0.081923 0.630774 -0.100744
0.914484 7.031533 0.870635
0.081778 0.627942 -0.077753
0.922923 7.077111 1.130396
0.906138 6.948399 -0.613054
0.926368 7.093869 1.390616
0.906640 6.933377 -0.366456
2.660172 20.315632 4.730271
0.913552 6.967292 -0.122656
2.691930 20.502575 5.540798
0.930546 7.011443 0.123458
0.935014 7.026333 0.371481
0.942144 7.079908 -1.388326
0.936067 7.024838 0.620026
0.093007 0.697057 -0.111381
0.940073 7.036169 0.871610
0.924457 6.910080 -0.856010
0.948148 7.077762 1.131021
0.929860 6.941244 -0.612705
0.951384 7.092538 1.390998
0.930573 6.928190 -0.366352
2.731855 20.312014 4.731620
0.938396 6.968026 -0.122725
2.765035 20.504538 5.543904
0.954869 7.016244 0.123598
0.959391 7.031109 0.371899
0.965087 7.072854 -1.387563
0.960434 7.029592 0.620723
0.975137 7.127930 -1.139469
0.964480 7.040879 0.872585
0.950333 6.928610 -0.858692
0.970540 7.066750 1.129770
0.954625 6.941903 -0.613054
0.975970 7.097124 1.392524
0.954631 6.932981 -0.366770
2.799735 20.306704 4.732520
0.960953 6.960913 -0.122656
2.835128 20.510569 5.548045
0.979906 7.016829 0.123668
0.985038 7.035629 0.372318
0.991275 7.071213 -1.387945
0.985637 7.022079 0.620375
0.989606 7.041401 0.873072
0.973404 6.917387 -0.857717
0.996299 7.071145 1.131021
0.978018 6.932610 -0.612531
1.001978 7.093499 1.392524
0.980873 6.935369 -0.367084
2.876052 20.309813 4.735670
0.985808 6.961476 -0.122725
2.900202 20.454639 5.535622
1.004484 7.005272 0.123528
1.010817 7.031971 0.372318
1.017910 7.081314 -1.390616
1.010712 7.022539 0.620723
1.016539 7.045586 0.874047
1.001024 6.929491 -0.859666
1.023339 7.075266 1.132273
1.001636 6.925210 -0.612182
1.026731 7.089958 1.392524
1.006510 6.941785 -0.367608
2.947195 20.301580 4.736119
1.013040 6.969690 -0.122935
2.962351 20.355936 5.511811
1.029510 7.005681 0.123598
1.037105 7.040256 0.372946
1.042910 7.079659 -1.390998
1.036962 7.030795 0.621769
1.125417 7.621324 -1.220189
1.040548 7.038066 0.873560
1.027239 6.939701 -0.861373
1.049191 7.079467 1.133524
1.027850 6.935468 -0.613402
1.051763 7.088273 1.392906
1.029560 6.930327 -0.367189
3.015181 20.271893 4.731620
1.037365 6.966111 -0.122935
3.028256 20.311077 5.502493
1.055746 7.013908 0.123807
1.060477 7.028694 0.372527
1.068197 7.079858 -1.391761
1.062690 7.035012 0.622466
1.156742 7.648600 -1.225195
1.065699 7.038318 0.874047
1.048484 6.916446 -0.858935
1.074491 7.079667 1.134150
1.052652 6.935777 -0.613751
1.077380 7.090382 1.394051
1.055249 6.936563 -0.367712
3.088278 20.276655 4.735220
1.063478 6.974309 -0.123144
3.102640 20.323298 5.508705
1.080831 7.014133 0.123877
1.085312 7.026923 0.372632
1.094704 7.087728 -1.394051
1.086633 7.027322 0.622118
1.188872 7.679654 -1.230826
1.092087 7.046325 0.875509
1.071709 6.906858 -0.858204
1.097983 7.068065 1.132899
1.078078 6.939935 -0.614448
1.102728 7.090457 1.394814
1.080072 6.936784 -0.367922
3.164136 20.298487 4.742868
1.087202 6.966603 -0.123074
3.175358 20.323797 5.511811
1.106552 7.018220 0.124017
1.111392 7.032955 0.373155
1.117904 7.074168 -1.392143
1.111774 7.027422 0.622466
1.214437 7.667653 -1.229575
1.117296 7.046391 0.875997
1.097052 6.910918 -0.859179
1.123270 7.068091 1.133524
1.101673 6.932195 -0.614099
1.129325 7.098198 1.397104
1.105535 6.940862 -0.368340
3.239580 20.316181 4.749617
1.111515 6.962765 -0.123074
3.252070 20.348835 5.521646
1.129772 7.006417 0.123877
1.137211 7.036920 0.373574
1.144159 7.079913 -1.394051
1.136300 7.023499 0.622466
1.241825 7.667267 -1.230201
1.143159 7.050286 0.876972
1.122761 6.916844 -0.860398
1.148884 7.069977 1.134463
1.126502 6.932240 -0.614448
1.152202 7.082586 1.394814
1.132323 6.952732 -0.369178
3.313295 20.322062 4.753666
1.137100 6.966737 -0.123214
3.327126 20.362144 5.528375
1.155196 7.008350 0.123982
1.162746 7.038819 0.373888
1.171427 7.091372 -1.397104
1.162108 7.027352 0.623164
1.270519 7.674578 -1.232078
1.167115 7.042336 0.876484
1.148197 6.920716 -0.861373
1.174853 7.073718 1.135714
1.152654 6.940058 -0.615494
1.178208 7.086267 1.396340
1.155928 6.944796 -0.368969
3.386460 20.323828 4.756815
1.162730 6.970615 -0.123354
3.400724 20.365650 5.532516
1.181648 7.016106 0.124191
1.187307 7.034717 0.373888
1.194211 7.075624 -1.394814
1.187961 7.031111 0.623861
1.298617 7.677887 -1.233329
1.191689 7.038219 0.876484
1.171686 6.912751 -0.860885
1.200858 7.077364 1.136966
1.177537 6.939922 -0.615842
1.204250 7.089854 1.397867
1.179495 6.936781 -0.368759
3.458359 20.317646 4.758164
1.189068 6.978342 -0.123563
3.471474 20.351749 5.531998
1.206130 7.011939 0.124191
1.210288 7.028773 0.373783
1.219572 7.075281 -1.395577
1.213854 7.034775 0.624558
1.324736 7.669415 -1.232704
1.218957 7.049664 0.878434
1.196826 6.914487 -0.861616
1.222975 7.065557 1.135714
1.203114 6.943622 -0.616540
1.231006 7.097213 1.400156
1.205754 6.944427 -0.369387
3.530256 20.311213 4.759514
1.210832 6.966480 -0.123423
3.541599 20.355352 5.536139
1.232138 7.023658 0.124471
1.236201 7.032374 0.374202
1.244937 7.074850 -1.396340
1.237018 7.022646 0.623861
1.352905 7.680543 -1.235207
1.243705 7.053403 0.879409
1.220779 6.916345 -0.862348
1.249004 7.069026 1.136966
1.225958 6.931532 -0.615842
1.255217 7.096959 1.400920
1.228774 6.940392 -0.369387
3.600657 20.316662 4.763564
1.235144 6.962211 -0.123423
3.612626 20.342867 5.536139
1.255240 7.011441 0.124331
1.261798 7.033914 0.374516
1.270473 7.082276 -1.398630
1.261002 7.022427 0.624209
1.379709 7.675773 -1.235207
1.269020 7.052927 0.879897
1.246676 6.921810 -0.863566
1.275076 7.072399 1.138217
1.251560 6.935053 -0.616540
1.278586 7.084805 1.399393
1.255122 6.947853 -0.370015
3.672947 20.311640 4.765363
1.262287 6.973598 -0.123703
3.686709 20.347240 5.540798
1.279709 7.007016 0.124331
1.287783 7.037325 0.374935
1.297132 7.081434 -1.399393
1.289605 7.033437 0.625604
1.408544 7.674551 -1.235832
1.292200 7.040644 0.878922
1.273342 6.931083 -0.865272
1.300465 7.071791 1.138843
1.277205 6.938479 -0.617237
1.305258 7.083933 1.400156
1.279853 6.939278 -0.369806
3.749840 20.311459 4.768513
1.286623 6.969150 -0.123703
3.761579 20.355145 5.546492
1.307580 7.014073 0.124540
1.310876 7.024932 0.374516
1.329771 7.119320 -1.407789
1.315615 7.036726 0.626301
1.436053 7.673470 -1.236458
1.318726 7.039762 0.879409
1.297273 6.918565 -0.864297
1.328057 7.082741 1.141346
1.302889 6.941811 -0.617934
1.332151 7.090911 1.402446
1.304808 6.938694 -0.370015
3.821804 20.303986 4.769862
1.312424 6.972476 -0.123842
3.834035 20.349485 5.548563
1.333818 7.025415 0.124820
1.336878 7.028163 0.374935
1.352413 7.103063 -1.405499
1.341664 7.039919 0.626998
1.462969 7.676428 -1.237710
1.345038 7.050951 0.881359
1.319838 6.912274 -0.864054
1.350549 7.066421 1.139469
1.328979 6.947006 -0.618806
1.356394 7.090312 1.403209
1.330066 6.946097 -0.370643
3.890210 20.296944 4.771212
1.335996 6.963926 -0.123772
3.908693 20.354948 5.553739
1.359088 7.024644 0.124889
1.362925 7.031297 0.375354
1.381189 7.125524 -1.410842
1.364238 7.031520 0.626650
1.491261 7.679032 -1.238961
1.369644 7.046212 0.881359
1.346611 6.921266 -0.865760
1.375961 7.065541 1.140095
1.350488 6.934738 -0.618109
1.383016 7.095168 1.405118
1.355836 6.949253 -0.371062
3.964393 20.300455 4.775261
1.361833 6.967070 -0.123912
3.979727 20.341179 5.553739
1.383602 7.019857 0.124889
1.389006 7.034335 0.375772
1.414419 7.163032 -1.419237
1.388776 7.026715 0.626650
1.517292 7.669904 -1.238335
1.397315 7.056967 0.883309
1.373076 6.928207 -0.867222
1.402924 7.072320 1.141972
1.375463 6.933890 -0.618457
1.406243 7.082595 1.403591
1.380859 6.948398 -0.371271
4.038278 20.301783 4.778860
1.387705 6.970119 -0.124052
4.052958 20.338533 5.556845
1.408099 7.014984 0.124889
1.415523 7.039233 0.376296
1.439416 7.158051 -1.419237
1.415656 7.033543 0.627696
1.545614 7.672306 -1.239587
1.419587 7.040371 0.881847
1.398039 6.927263 -0.867710
1.429165 7.075126 1.143223
1.401235 6.936859 -0.619154
1.431737 7.081491 1.404354
1.405899 6.947449 -0.371481
4.114144 20.312391 4.784709
1.413617 6.973071 -0.124191
4.127007 20.339407 5.560987
1.432576 7.010026 0.124889
1.438485 7.026422 0.375877
1.441797 7.036366 0.628393
1.572385 7.666864 -1.239587
1.445753 7.043150 0.882822
1.420612 6.914563 -0.866735
1.454647 7.073964 1.143849
1.428650 6.947538 -0.620549
1.459616 7.091834 1.407407
1.430946 6.946412 -0.371690
4.183444 20.290276 4.782909
1.438760 6.972011 -0.124261
4.200711 20.338121 5.564610
1.458668 7.012814 0.125029
1.464632 7.029180 0.376296
1.467979 7.039092 0.629090
1.601561 7.672931 -1.241464
1.471951 7.045834 0.883797
1.445554 6.913448 -0.867222
1.478524 7.064976 1.143223
1.454119 6.948359 -0.621072
1.484763 7.088617 1.407789
1.456006 6.945284 -0.371899
4.474346 21.324512 5.030355
1.462264 6.963032 -0.124191
4.489440 21.359350 5.848275
1.485621 7.019418 0.125238
1.491643 7.035747 0.376924
1.492540 7.033926 0.629090
1.631616 7.682752 -1.243967
1.498186 7.048419 0.884771
1.472567 6.921951 -0.868928
1.504820 7.067500 1.144475
1.477533 6.939344 -0.620723
1.511133 7.091072 1.409315
1.481909 6.947972 -0.372318
4.553633 21.331635 5.035754
1.488652 6.967663 -0.124366
4.568824 21.366219 5.854487
1.510116 7.014189 0.125238
1.517034 7.034402 0.377133
1.517085 7.028672 0.629090
1.658426 7.677010 -1.243967
1.523618 7.047028 0.885259
1.498821 6.926469 -0.870147
1.531156 7.069926 1.145726
1.502592 6.938038 -0.621072
1.535875 7.085755 1.409315
1.506999 6.946661 -0.372527
4.631793 21.332748 5.039804
1.514658 6.970242 -0.124505
4.646248 21.363356 5.858110
1.535017 7.010829 0.125273
1.542437 7.032966 0.377342
1.543318 7.031118 0.629787
1.684788 7.669245 -1.243654
1.548210 7.041666 0.885259
1.524272 6.927011 -0.870878
1.557948 7.074184 1.147290
1.529371 6.944426 -0.622118
1.560601 7.080350 1.409315
1.532100 6.945259 -0.372737
4.710007 21.333576 5.043852
1.540707 6.972722 -0.124645
4.723717 21.360209 5.861734
1.560865 7.017412 0.125483
1.565752 7.027812 0.377342
1.568362 7.033740 0.630485
1.711931 7.671328 -1.244906
1.573285 7.044242 0.886234
1.546367 6.918044 -0.870391
1.583984 7.080546 1.149168
1.556216 6.950710 -0.623164
1.584932 7.078967 1.410079
1.555995 6.944039 -0.372946
4.780722 21.317842 5.043852
1.565575 6.975379 -0.124785
4.800447 21.370815 5.868981
1.587113 7.019722 0.125622
1.591152 7.026200 0.377552
1.595893 7.035717 0.631182
1.736981 7.651516 -1.242715
1.598745 7.042579 0.886721
1.571384 6.916477 -0.870878
1.607816 7.071121 1.148542
1.582239 6.953006 -0.623861
1.613481 7.084596 1.412368
1.583210 6.946078 -0.373365
4.863606 21.321070 5.048801
1.589471 6.967921 -0.124750
4.878451 21.368998 5.873122
1.614622 7.021654 0.125762
1.618358 7.032281 0.378180
1.620440 7.030104 0.631182
1.771666 7.680055 -1.248347
1.629904 7.059883 0.889646
1.599403 6.922276 -0.872341
1.632488 7.065466 1.148542
1.606046 6.945500 -0.623686
1.639088 7.082746 1.413131
1.609251 6.948292 -0.373783
4.942387 21.322952 5.053300
1.615134 6.968176 -0.124855
4.953892 21.355600 5.874157
1.638351 7.018209 0.125797
1.645625 7.038258 0.378808
1.646789 7.032164 0.631879
1.793073 7.656826 -1.245531
1.652399 7.050574 0.889159
1.623708 6.922732 -0.873072
1.661657 7.078955 1.151671
1.631194 6.943730 -0.624035
1.662565 7.077272 1.413131
1.635021 6.954585 -0.374411
5.022001 21.344383 5.062299
1.643116 6.978067 -0.125134
5.032380 21.355104 5.878816
1.662841 7.012446 0.125797
1.672028 7.040243 0.379226
1.671941 7.034417 0.632576
1.821620 7.658207 -1.246783
1.676079 7.040901 0.888671
1.649245 6.922814 -0.873803
1.688191 7.080797 1.152922
1.658195 6.949623 -0.625081
1.691814 7.090522 1.416948
1.659289 6.948834 -0.374411
5.131812 21.474562 5.097391
1.669323 6.980069 -0.125273
1.689651 7.016320 0.125971
1.694721 7.026597 0.378808
1.700518 7.039864 0.633622
1.854780 7.672601 -1.250224
1.701581 7.038867 0.889159
1.672002 6.911227 -0.873072
1.714752 7.082542 1.154174
1.683384 6.947664 -0.625430
1.719643 7.091905 1.418474
1.684748 6.942706 -0.374411
5.227036 21.523781 5.113587
1.696039 6.983914 -0.125448
1.716780 7.015907 0.126076
1.721137 7.028399 0.379226
1.725083 7.033884 0.633622
1.885791 7.683345 -1.253040
1.731155 7.048005 0.891109
1.698741 6.910836 -0.873803
1.739466 7.076513 1.154174
1.711435 6.957223 -0.626824
1.745795 7.091578 1.419619
1.710882 6.944540 -0.374830
5.299343 21.494051 5.110888
1.718973 6.972126 -0.125343
1.742447 7.019879 0.126251
1.748550 7.033978 0.379854
1.749624 7.027820 0.633622
1.908391 7.665549 -1.251163
1.755476 7.046079 0.891596
1.725973 6.922499 -0.875997
1.763199 7.066565 1.153548
1.732812 6.939609 -0.625778
1.771206 7.093369 1.421145
1.736809 6.950453 -0.375458
5.376260 21.499046 5.116287
1.745240 6.973844 -0.125483
1.765473 7.007937 0.126146
1.774072 7.031705 0.380064
1.774872 7.029706 0.634319
1.932236 7.647349 -1.249286
1.782009 7.047606 0.892571
1.753047 6.927979 -0.877459
1.791737 7.075686 1.156051
1.757770 6.941550 -0.626475
1.794025 7.079531 1.419619
1.763022 6.952093 -0.375877
5.457979 21.506596 5.122585
1.772032 6.977400 -0.125657
1.791905 7.009481 0.126286
1.801576 7.037078 0.380692
2.234445 8.727891 -1.751245
1.801379 7.031187 0.635017
1.954996 7.625250 -1.246783
1.807584 7.045188 0.893059
1.776728 6.919895 -0.877216
1.819376 7.080868 1.157928
1.784967 6.946950 -0.627521
1.822147 7.086536 1.422290
1.786285 6.942028 -0.375668
5.533024 21.487411 5.122585
1.798372 6.978918 -0.125797
1.817869 7.008991 0.126390
1.825127 7.026880 0.380482
2.261938 8.708636 -1.748955
1.829920 7.040283 0.636411
1.996020 7.673821 -1.255856
1.831167 7.034993 0.892571
1.801371 6.915571 -0.877459
1.847070 7.085943 1.159805
1.811214 6.948389 -0.628219
1.849848 7.091530 1.424580
1.812523 6.943480 -0.376086
5.607991 21.467966 5.122585
1.826770 6.988076 -0.126076
1.844358 7.010338 0.126530
1.851678 7.028193 0.380901
2.287320 8.681704 -1.745139
1.855498 7.037706 0.636760
2.025316 7.676356 -1.257420
1.860782 7.047751 0.895009
1.827526 6.916919 -0.878434
1.870785 7.075632 1.159180
1.838515 6.953582 -0.629264
1.880619 7.107804 1.429159
1.838793 6.944834 -0.376505
5.690886 21.478397 5.129784
1.849103 6.973924 -0.125937
1.870881 7.011585 0.126670
1.880327 7.037122 0.381738
2.305450 8.628145 -1.735980
1.879026 7.027337 0.636411
2.055668 7.682598 -1.259610
1.887424 7.048883 0.895983
1.854745 6.922001 -0.879897
1.896491 7.072876 1.159805
1.860708 6.939425 -0.628567
1.905925 7.103094 1.429541
1.863543 6.940302 -0.376610
5.771887 21.480988 5.135183
1.874473 6.971290 -0.126006
1.895343 7.005013 0.126670
1.908015 7.042082 0.382367
2.249301 8.301695 -1.671868
1.904586 7.024580 0.636760
2.083509 7.679189 -1.260236
1.915140 7.053746 0.897446
1.879935 6.919317 -0.880384
1.925316 7.081462 1.162308
1.887012 6.940578 -0.629264
1.928648 7.088819 1.428015
1.891954 6.949172 -0.377447
5.846830 21.460711 5.135183
1.901953 6.976279 -0.126216
1.795246 6.548849 -1.819498
1.920844 7.002211 0.126739
1.933638 7.039232 0.382576
2.233537 8.130986 -1.639049
1.933321 7.033258 0.638154
2.110304 7.671869 -1.260236
1.938692 7.043191 0.896958
1.907768 6.926109 -0.882090
1.952125 7.082315 1.163560
1.913347 6.941631 -0.629962
1.957552 7.097185 1.431068
1.915138 6.938674 -0.377238
5.909261 21.395086 5.124385
1.929485 6.981164 -0.126425
5.936518 21.464575 5.967332
1.802579 6.486702 -1.803969
1.949026 7.008948 0.126984
1.958200 7.032439 0.382576
2.049146 7.359054 -1.484876
1.961070 7.037982 0.639200
2.140783 7.677776 -1.262426
1.964335 7.040205 0.897446
1.928732 6.907935 -0.880628
1.978959 7.083069 1.164811
1.939173 6.940667 -0.630485
1.984959 7.099762 1.432976
1.941502 6.939641 -0.377656
5.967092 21.314280 5.109988
1.956002 6.982088 -0.126565
5.988989 21.363731 5.945074
1.826781 6.485950 -1.805522
1.973475 7.002104 0.126984
1.983819 7.029405 0.382785
2.056690 7.287615 -1.471901
1.986704 7.034930 0.639549
2.169184 7.675958 -1.263365
1.994301 7.052406 0.899883
1.956072 6.912622 -0.882090
2.003674 7.076117 1.164811
1.967734 6.949191 -0.631879
2.012943 7.104123 1.435265
1.967888 6.940508 -0.378075
6.048377 21.317690 5.115837
1.979271 6.971369 -0.126495
6.066679 21.353851 5.948179
1.846230 6.468387 -1.802416
2.002850 7.012476 0.127298
2.244860 7.854624 -1.885990
2.012740 7.037799 0.383623
2.052968 7.178462 -1.451293
2.011250 7.027952 0.639549
2.200314 7.683532 -1.265868
2.021092 7.053035 0.900858
1.984568 6.921017 -0.884040
2.029450 7.072877 1.165437
1.990878 6.938450 -0.631531
2.040437 7.106489 1.437173
1.995966 6.947033 -0.378808
6.128142 21.315174 5.120336
2.004698 6.968262 -0.126565
6.145997 21.349251 5.952838
1.870410 6.467470 -1.803969
2.024535 6.995839 0.127123
2.276599 7.861715 -1.889589
2.038287 7.038760 0.384041
2.049601 7.073196 -1.431449
2.037988 7.028543 0.640246
2.183084 7.524035 -1.240838
2.050130 7.061188 0.902808
2.010929 6.921673 -0.885015
2.057301 7.081285 1.167940
2.016197 6.935286 -0.631879
2.065781 7.101207 1.437555
2.023551 6.951530 -0.379436
6.209034 21.316111 5.125735
2.031149 6.973096 -0.126774
6.221631 21.345442 5.957497
1.894602 6.466464 -1.805522
2.051661 7.002519 0.127368
2.275246 7.760620 -1.867094
2.066220 7.043101 0.384669
2.064323 7.032091 -1.424580
2.065881 7.032855 0.641292
2.167939 7.380292 -1.218312
2.071293 7.046733 0.901833
2.036674 6.924489 -0.886234
2.084239 7.081640 1.169191
2.044335 6.941583 -0.633099
2.093199 7.107501 1.440226
2.044336 6.937119 -0.379017
6.286307 21.317831 5.131134
2.057743 6.973635 -0.126914
6.302663 21.345831 5.963709
1.918231 6.467554 -1.807592
2.079504 7.006818 0.127577
2.180273 7.341647 -1.768115
2.088429 7.032380 0.384460
2.092103 7.040263 -1.427633
2.092597 7.037425 0.642338
2.177916 7.319665 -1.209551
2.098143 7.047071 0.902808
2.058564 6.909727 -0.885259
2.108838 7.078476 1.169817
2.069052 6.940494 -0.633622
2.116872 7.096389 1.439463
2.070822 6.937595 -0.379436
6.364592 21.308826 5.134283
2.083148 6.974436 -0.127054
6.377834 21.339619 5.967850
1.944132 6.471920 -1.810698
2.106181 7.011374 0.127787
2.135042 7.102962 -1.712327
2.112962 7.025048 0.384460
2.112141 7.017876 -1.424580
2.120595 7.041525 0.643384
2.202742 7.314296 -1.209864
2.123793 7.047676 0.903783
2.083760 6.910465 -0.886234
2.133536 7.071071 1.169817
2.096144 6.942766 -0.634494
2.144934 7.104365 1.442516
2.098439 6.945985 -0.380273
6.441418 21.308126 5.139232
2.106321 6.963295 -0.126984
6.462365 21.350510 5.977168
1.965020 6.463589 -1.810181
2.132969 7.011632 0.127926
2.142801 7.039538 -1.698830
2.140898 7.033288 0.385297
2.136544 7.014590 -1.425343
2.141613 7.026830 0.642686
2.187350 7.172410 -1.187651
2.151856 7.051612 0.905246
2.111926 6.916439 -0.887940
2.160432 7.075293 1.171694
2.119737 6.937683 -0.634668
2.170866 7.100590 1.443279
2.123839 6.942438 -0.380482
6.523738 21.311600 5.145530
2.130570 6.960096 -0.127054
6.538228 21.345583 5.981826
1.986432 6.452998 -1.809145
2.156208 7.004520 0.127926
2.161545 7.017493 -1.695231
2.168967 7.037224 0.385925
2.163330 7.014594 -1.426870
2.169654 7.030733 0.643732
2.188990 7.093389 -1.175762
2.178744 7.055818 0.906708
2.137779 6.918881 -0.889159
2.188619 7.079031 1.173571
2.146298 6.937854 -0.635365
2.200205 7.112108 1.447096
2.152754 6.954437 -0.381529
6.651463 21.474134 5.190071
2.159590 6.967897 -0.127333
2.011246 6.453402 -1.811216
2.183654 7.002297 0.128031
2.186089 7.005804 -1.694331
2.198316 7.040667 0.386553
2.198336 7.040732 -1.433739
2.197747 7.034528 0.644778
2.207900 7.062694 -1.172007
2.204589 7.047785 0.906708
2.168465 6.928048 -0.891352
2.216910 7.078503 1.174823
2.175286 6.941349 -0.636411
2.220972 7.087135 1.443661
2.175844 6.938875 -0.381110
6.739455 21.479364 5.197269
