# This PCD file was generated using the MATLAB® pcwrite function
# from Computer Vision Toolbox®.
# .PCD v.7 - Point Cloud Data file format
VERSION .5
FIELDS x y z
SIZE 4 4 4
TYPE F F F
COUNT 1 1 1
WIDTH 1594
HEIGHT 1
POINTS 1594
DATA ascii
-0.259019 -2.797451 -0.546095
-0.966384 -10.417310 0.915310
-0.970150 -10.418349 1.284747
-0.980049 -10.485031 1.667904
-0.965055 -10.305189 2.011890
-0.931579 -9.910478 2.298100
-0.934377 -9.903122 2.665318
-0.264329 -2.765399 -0.744364
-0.265752 -2.770083 -0.642460
-0.996683 -10.369916 0.545969
-0.267468 -2.782850 -0.543424
-1.007325 -10.461469 0.919493
-1.011856 -10.470225 1.291571
-1.023128 -10.548394 1.678542
-1.007096 -10.364287 2.024102
-0.971087 -9.957593 2.309798
-0.973455 -9.945945 2.677742
-0.273790 -2.762537 -0.743846
-0.275613 -2.771077 -0.642910
-1.040398 -10.441895 0.549946
-0.277180 -2.781900 -0.543424
-1.049377 -10.513401 0.924374
-1.052553 -10.508108 1.296690
-1.063103 -10.576206 1.683548
-1.048382 -10.411496 2.034024
-1.013480 -10.029758 2.327344
-1.013040 -9.990536 2.690683
-0.284111 -2.763436 -0.744364
-0.286768 -2.779741 -0.645160
-1.082975 -10.479733 0.552144
-0.288182 -2.788677 -0.544951
-1.089133 -10.521375 0.925420
-1.093111 -10.523925 1.299127
-1.113736 -10.686193 1.701694
-1.089185 -10.432968 2.038985
-1.054903 -10.070554 2.337691
-1.054699 -10.034787 2.703624
-0.293960 -2.764349 -0.744881
-0.295435 -2.769034 -0.642910
-1.124855 -10.525537 0.554761
-0.298749 -2.795462 -0.546477
-1.127763 -10.535338 0.926988
-1.128567 -10.508203 1.297665
-1.142143 -10.599752 1.688554
-1.130651 -10.475948 2.048144
-1.094665 -10.109433 2.347589
-1.094518 -10.075217 2.715529
-0.303818 -2.765226 -0.745399
-0.304886 -2.766049 -0.642460
-0.308936 -2.798305 -0.547240
-1.168034 -10.563022 0.929777
-1.171369 -10.559443 1.304490
-1.172487 -10.552714 1.681671
-1.172868 -10.522668 2.058066
-1.134669 -10.163849 2.361086
-1.135448 -10.138726 2.733647
-0.314073 -2.773801 -0.747987
-0.314716 -2.770832 -0.643810
-1.208612 -10.640885 0.561251
-0.317548 -2.791413 -0.546095
-1.208921 -10.610560 0.934310
-1.208408 -10.573251 1.306683
-1.209722 -10.568394 1.684799
-1.207980 -10.520671 2.058447
-1.176382 -10.229727 2.377283
-1.176811 -10.202076 2.751764
-0.322823 -2.768907 -0.746952
-0.324356 -2.773644 -0.644710
-1.244356 -10.624700 0.560623
-0.326575 -2.788395 -0.545714
-1.240153 -10.572854 0.931346
-1.241609 -10.553413 1.304733
-1.243595 -10.538604 1.680732
-1.246087 -10.543903 2.063790
-1.220112 -10.293288 2.393029
-1.219942 -10.261210 2.768846
-0.332025 -2.763927 -0.745917
-0.334968 -2.780233 -0.646509
-1.282392 -10.628222 0.561041
-0.337011 -2.793085 -0.546859
-1.280637 -10.598130 0.933961
-1.283215 -10.588428 1.309608
-1.284427 -10.567534 1.686051
-1.284781 -10.555080 2.066843
-1.264773 -10.360539 2.409676
-1.264439 -10.327838 2.787999
-0.342382 -2.768503 -0.747469
-0.343472 -2.769378 -0.644260
-1.322436 -10.647465 0.562298
-0.347968 -2.801633 -0.548767
-1.314181 -10.565915 0.931521
-1.315499 -10.546457 1.304977
-1.331849 -10.647270 1.699504
-1.319423 -10.532999 2.063409
-1.308944 -10.419868 2.424523
-1.313039 -10.423030 2.814916
-0.352532 -2.771124 -0.748505
-0.352890 -2.766229 -0.643810
-1.360356 -10.648728 0.562612
-0.356751 -2.792612 -0.547240
-1.357882 -10.614623 0.936227
-1.360136 -10.602839 1.312533
-1.373039 -10.673905 1.704510
-1.362452 -10.577008 2.072949
-1.348805 -10.442293 2.430821
-1.363805 -10.529503 2.844939
-0.362202 -2.769876 -0.748505
-0.363304 -2.770777 -0.645160
-1.409478 -10.735006 0.567427
-0.366241 -2.789403 -0.546859
-1.406871 -10.700686 0.944245
-1.416337 -10.743664 1.330570
-1.432811 -10.839423 1.731730
-1.418685 -10.718160 2.101570
-1.396015 -10.518657 2.449717
-1.418645 -10.660641 2.881691
-0.371612 -2.766680 -0.747987
-0.373494 -2.773355 -0.646059
-1.466159 -10.872533 0.574963
-0.375451 -2.784217 -0.546095
-1.462878 -10.833923 0.956447
-1.467414 -10.838979 1.343000
-1.473295 -10.853930 1.734858
-1.459792 -10.740376 2.106913
-1.446668 -10.616056 2.473562
-1.476509 -10.806835 2.922585
-0.380739 -2.761539 -0.746952
-0.385040 -2.785547 -0.649209
-1.515603 -10.950443 0.579359
-0.386783 -2.794557 -0.548385
-1.509986 -10.895851 0.962374
-1.511249 -10.877047 1.348362
-1.514173 -10.870242 1.738300
-1.502968 -10.776050 2.114927
-1.508815 -10.790428 2.515403
-1.513954 -10.799703 2.922067
-0.391458 -2.767844 -0.749022
-0.393120 -2.772609 -0.646509
-1.555221 -10.954972 0.579882
-0.395983 -2.789302 -0.547622
-1.549973 -10.904322 0.963594
-1.548928 -10.869740 1.348119
-1.551269 -10.859024 1.737361
-1.553084 -10.858193 2.132100
-1.550619 -10.814032 2.522151
-1.553568 -10.807737 2.925691
-0.401672 -2.770285 -0.750058
-0.401394 -2.761577 -0.644260
-1.590104 -10.939874 0.579359
-0.407414 -2.799560 -0.549912
-1.588027 -10.898845 0.963594
-1.587149 -10.866231 1.348362
-1.586699 -10.849911 1.736736
-1.589838 -10.844936 2.130573
-1.586660 -10.796986 2.519452
-1.589961 -10.806349 2.926726
-0.411907 -2.772688 -0.751093
-0.412556 -2.773724 -0.647409
-1.628872 -10.938207 0.579568
-0.415446 -2.786470 -0.547622
-1.627237 -10.901117 0.964291
-1.624641 -10.870725 1.349581
-1.626025 -10.854074 1.738300
-1.627540 -10.851253 2.132863
-1.622163 -10.789738 2.519002
-1.629976 -10.816015 2.930867
-0.419939 -2.763667 -0.749022
-0.422529 -2.774193 -0.647859
-1.666741 -10.930480 0.579464
-0.426059 -2.790825 -0.548767
-1.662776 -10.891722 0.963942
-1.663177 -10.868912 1.350069
-1.663904 -10.848331 1.738300
-1.668195 -10.851038 2.134008
-1.662189 -10.799417 2.522601
-1.665659 -10.796895 2.927243
-0.430363 -2.764018 -0.749540
-0.434497 -2.784179 -0.650558
-1.708334 -10.934163 0.579987
-0.436892 -2.793124 -0.549530
-1.702686 -10.885554 0.963942
-1.704539 -10.872549 1.351287
-1.705494 -10.853869 1.740177
-1.707344 -10.840971 2.133245
-1.702064 -10.795178 2.523051
-1.706426 -10.798350 2.929314
-0.441403 -2.768145 -0.751093
-0.443469 -2.774870 -0.648759
-1.748066 -10.937996 0.580510
-0.449741 -2.810968 -0.553346
-1.744463 -10.891045 0.964988
-1.742489 -10.854468 1.349825
-1.743056 -10.845899 1.739864
-1.744553 -10.831069 2.132482
-1.742216 -10.804562 2.526650
-1.745035 -10.798049 2.930867
-0.451822 -2.774293 -0.753163
-0.453610 -2.779154 -0.650109
-1.784650 -10.934110 0.580615
-0.460010 -2.815274 -0.554491
-1.781534 -10.891097 0.965511
-1.780080 -10.858425 1.351044
-1.782852 -10.863452 1.743619
-1.782689 -10.838784 2.135153
-1.776770 -10.791034 2.524851
-1.781461 -10.796015 2.931902
-0.461019 -2.772779 -0.753163
-0.461862 -2.771868 -0.648759
-1.821821 -10.921903 0.580301
-0.468051 -2.805987 -0.552965
-1.819937 -10.898888 0.966731
-1.818701 -10.868124 1.352993
-1.820434 -10.855212 1.743306
-1.819923 -10.840558 2.136679
-1.814426 -10.784766 2.524851
-1.820420 -10.797351 2.933973
-0.469560 -2.761548 -0.750575
-0.744160 -4.376508 0.077489
-0.472189 -2.774081 -0.649659
-1.861948 -10.927291 0.580929
-0.476682 -2.794576 -0.551056
-1.858529 -10.884288 0.966034
-1.857295 -10.865624 1.353481
-1.859651 -10.856580 1.744557
-1.862632 -10.851230 2.140114
-1.856585 -10.793407 2.528450
-1.858098 -10.790931 2.933973
-0.478536 -2.756086 -0.749540
-0.760196 -4.373751 0.077489
-0.483356 -2.778091 -0.651008
-1.901448 -10.928596 0.581348
-0.487444 -2.798698 -0.552201
-1.896854 -10.879696 0.966209
-1.898132 -10.864610 1.354212
-1.905702 -10.896723 1.752066
-1.897787 -10.829191 2.137061
-1.895598 -10.794538 2.530249
-1.896090 -10.786281 2.934490
-0.490176 -2.765812 -0.752646
-0.774695 -4.371206 0.077489
-0.491204 -2.768798 -0.649209
-1.942379 -10.937623 0.582185
-0.497554 -2.798912 -0.552583
-1.937612 -10.888701 0.967603
-1.934498 -10.860210 1.354456
-1.935396 -10.843333 1.744557
-1.921948 -10.757129 2.124086
-1.933788 -10.801620 2.533399
-1.935434 -10.789104 2.937079
-0.499689 -2.766072 -0.753163
-0.789949 -4.368475 0.077489
-0.500866 -2.767067 -0.649209
-1.976503 -10.919330 0.581557
-0.507883 -2.803042 -0.553728
-1.975487 -10.892018 0.968475
-1.973105 -10.857298 1.354944
-1.970990 -10.834912 1.744244
-1.960189 -10.754216 2.124849
-1.971481 -10.794804 2.533399
-1.973286 -10.794028 2.940185
-0.510741 -2.771911 -0.755234
-0.804431 -4.365832 0.077489
-0.511806 -2.774973 -0.651458
-2.016059 -10.920220 0.581976
-0.516237 -2.793530 -0.552201
-2.014583 -10.890934 0.968998
-2.010183 -10.856551 1.355675
-2.005917 -10.812428 1.741742
-2.003368 -10.788193 2.132863
-2.007624 -10.790124 2.533849
-2.014139 -10.804167 2.944843
-0.518987 -2.762516 -0.753163
-0.522694 -2.776908 -0.652358
-2.056011 -10.922930 0.582499
-0.525259 -2.787852 -0.551438
-2.051849 -10.879919 0.968649
-2.054015 -10.870567 1.358356
-2.055394 -10.867472 1.751753
-2.047282 -10.803925 2.137443
-2.048249 -10.788435 2.535198
-2.048954 -10.781888 2.940702
-0.528264 -2.758791 -0.752646
-0.532634 -2.778988 -0.653258
-2.099020 -10.941186 0.583860
-0.536467 -2.793714 -0.552965
-2.091318 -10.880518 0.969346
-2.092302 -10.875392 1.359818
-2.090324 -10.844713 1.749250
-2.081610 -10.789365 2.135916
-2.072177 -10.720358 2.520802
-2.089149 -10.787947 2.944325
-0.539627 -2.768401 -0.755752
-2.128326 -10.908623 0.194001
-0.540837 -2.769461 -0.651458
-2.134900 -10.922031 0.583232
-0.547235 -2.799627 -0.554491
-2.128536 -10.879388 0.969869
-2.127578 -10.854385 1.358112
-2.129691 -10.845104 1.750502
-2.124559 -10.809003 2.141258
-2.111093 -10.720708 2.522601
-2.128289 -10.788170 2.946396
-0.548535 -2.762711 -0.754716
-2.171848 -10.928585 0.194490
-0.551262 -2.771379 -0.652358
-2.178471 -10.941936 0.584697
-0.558538 -2.805401 -0.556017
-2.175455 -10.916833 0.973878
-2.171672 -10.878040 1.362012
-2.169858 -10.849226 1.752379
-2.159581 -10.788045 2.138587
-2.153483 -10.738113 2.528450
-2.170120 -10.801508 2.952090
-0.559707 -2.768353 -0.756787
-2.217915 -10.960138 0.195188
-0.561706 -2.773257 -0.653258
-2.213082 -10.916648 0.583755
-0.566767 -2.795738 -0.554491
-2.209983 -10.891599 0.972309
-2.206467 -10.854831 1.360062
-2.208897 -10.847392 1.753318
-2.204282 -10.815068 2.145457
-2.197192 -10.761080 2.535648
-0.644219 -3.152357 -0.056162
-2.208584 -10.797653 2.953125
-0.568587 -2.762598 -0.755752
-2.260194 -10.971915 0.195537
-0.572170 -2.775097 -0.654158
-2.253192 -10.918638 0.584279
-0.576126 -2.791820 -0.554109
-2.246375 -10.876015 0.971612
-2.247963 -10.864557 1.362256
-2.244745 -10.829945 1.751753
-2.248401 -10.838065 2.151562
-2.235930 -10.759068 2.536998
-0.634858 -3.052199 -0.054417
-2.243900 -10.778531 2.950020
-0.577435 -2.756815 -0.754716
-2.113847 -10.083241 0.179830
-0.583054 -2.778805 -0.655507
-2.329877 -11.094440 0.594118
-0.587078 -2.795556 -0.555254
-2.326128 -11.066984 0.989392
-2.331454 -11.053986 1.789298
-2.317443 -10.978061 2.180947
-2.276294 -10.764544 2.540147
-0.652961 -3.085179 -0.055045
-2.283112 -10.778192 2.952090
-0.588665 -2.762340 -0.756787
-0.592343 -2.774847 -0.655057
-2.380274 -11.140929 0.597049
-0.598473 -2.801169 -0.556781
-3.429630 -16.038763 1.434932
-3.429298 -16.009884 2.010357
-2.377072 -11.078613 1.794616
-2.315086 -10.762248 2.541497
-0.658676 -3.059422 -0.054626
-2.325196 -10.790930 2.957784
-0.598713 -2.762156 -0.757305
-0.602439 -2.774666 -0.655507
-2.422540 -11.148167 0.597886
-0.608664 -2.800982 -0.557162
-3.444521 -15.837847 1.418024
-3.764044 -17.277952 2.171224
-2.415728 -11.070249 1.794616
-2.356803 -10.773139 2.545996
-0.666785 -3.045383 -0.054417
-2.364505 -10.790297 2.959855
-0.610015 -2.767596 -0.759375
-0.612541 -2.774450 -0.655957
-2.465751 -11.159143 0.598933
-0.617591 -2.795006 -0.556399
-3.449022 -15.596170 1.397455
-3.828625 -17.284088 2.173662
-2.455211 -11.065606 1.795242
-2.748492 -12.377203 2.464489
-2.393125 -10.759139 2.544646
-0.674805 -3.031326 -0.054207
-2.403835 -10.789519 2.961925
-0.618827 -2.761680 -0.758340
-0.622648 -2.774196 -0.656407
-2.504688 -11.150469 0.598933
-0.630355 -2.806242 -0.559070
-3.434394 -15.276905 1.369914
-3.890678 -17.278368 2.174637
-2.499039 -11.080092 1.798997
-2.793842 -12.377109 2.466397
-2.435824 -10.773530 2.550045
-0.684058 -3.023101 -0.054102
-2.439348 -10.771642 2.959337
-0.628892 -2.761386 -0.758857
-0.635362 -2.785305 -0.659557
-2.547151 -11.157235 0.599770
-0.641021 -2.807852 -0.559834
-3.782373 -16.554535 1.485657
-3.957167 -17.291773 2.178049
-2.535934 -11.063600 1.797745
-2.834394 -12.355800 2.464108
-2.481706 -10.801047 2.558593
-0.698640 -3.038234 -0.054417
-2.466970 -10.719760 2.947431
-0.640269 -2.766703 -0.760928
-0.645521 -2.784969 -0.660006
-2.588790 -11.159949 0.600398
-0.651262 -2.807510 -0.560215
-2.879989 -12.405437 1.114199
-2.879150 -12.382203 1.560903
-2.579019 -11.073918 1.800874
-2.880181 -12.357303 2.466397
-2.533571 -10.853045 2.572990
-0.710605 -3.041619 -0.054521
-2.508332 -10.728014 2.952090
-0.650808 -2.768212 -0.761963
-0.653005 -2.773214 -0.657757
-2.628645 -11.154734 0.600608
-0.661959 -2.809042 -0.560978
-2.926932 -12.410823 1.115593
-2.923724 -12.377874 1.561634
-2.617658 -11.064849 1.800874
-2.927370 -12.364367 2.469832
-2.610108 -11.007205 2.611682
-0.723989 -3.050794 -0.054731
-2.547551 -10.726710 2.954161
-0.662710 -2.775319 -0.764552
-0.664495 -2.778499 -0.659557
-2.662834 -11.134301 0.599979
-0.671303 -2.804805 -0.560597
-2.651402 -11.069411 0.995842
-0.689326 -2.875674 -0.468365
-2.649707 -11.045320 1.394673
-2.657104 -11.067632 1.802751
-2.973266 -12.365527 2.472121
-2.647146 -10.992343 2.610332
-0.727079 -3.019214 -0.054207
-2.588991 -10.742619 2.960890
-0.670117 -2.763601 -0.761963
-0.675543 -2.783855 -0.661356
-2.695084 -11.097766 0.598514
-0.682017 -2.806260 -0.561360
-2.690495 -11.062025 0.996016
-2.690076 -11.051903 1.396623
-0.807132 -3.313501 -0.418743
-2.695720 -11.058290 1.802751
-3.016117 -12.363228 2.473648
-0.739038 -3.022485 -0.054312
-2.628771 -10.742899 2.963478
-0.677894 -2.755736 -0.760410
-0.686189 -2.785265 -0.662256
-2.737633 -11.103804 0.599351
-0.690849 -2.802076 -0.560978
-2.730982 -11.068517 0.997410
-2.732924 -11.059790 1.398816
-0.794866 -3.214311 -0.406556
-2.740947 -11.075659 1.807131
-3.059725 -12.354531 2.474030
-2.736919 -11.034595 2.624729
-0.752956 -3.033473 -0.054556
-2.671842 -10.756156 2.969690
-0.692204 -2.770101 -0.765069
-0.694962 -2.779071 -0.661356
-2.782678 -11.119368 0.600712
-0.703022 -2.807143 -0.562505
-2.778797 -11.087422 1.000025
-0.736702 -2.937275 -0.479628
-2.772961 -11.055958 1.399548
-2.779593 -11.066023 1.807131
-3.105944 -12.347041 2.474793
-2.784008 -11.050946 2.631027
-0.765983 -3.040522 -0.054731
-2.715511 -10.771116 2.976419
-0.701870 -2.767668 -0.765069
-0.706102 -2.780283 -0.662256
-2.822950 -11.115395 0.601026
-0.714751 -2.812283 -0.564031
-4.213209 -16.565313 1.495418
-0.745977 -2.930857 -0.479002
-4.396102 -17.259176 2.186824
-2.825033 -11.083053 1.811511
-3.152424 -12.349440 2.477464
-2.844769 -11.128009 2.651723
-0.775106 -3.032017 -0.054626
-2.755487 -10.770929 2.979007
-0.714415 -2.776426 -0.768175
-0.716775 -2.783588 -0.663606
-2.864723 -11.117077 0.601654
-0.721622 -2.798365 -0.561742
-4.274992 -16.565939 1.496813
-0.751743 -2.913065 -0.476499
-4.415587 -17.098433 2.168300
-2.866672 -11.084598 1.813389
-3.204671 -12.382633 2.486241
-3.104600 -11.978719 2.856879
-0.784681 -3.025422 -0.054556
-2.794038 -10.764986 2.980043
-0.720692 -2.762826 -0.765069
-0.727965 -2.786725 -0.664955
-2.906541 -11.118604 0.602282
-0.731394 -2.797856 -0.562123
-4.330908 -16.555529 1.497161
-0.773913 -2.956287 -0.484008
-4.443049 -16.960016 2.152700
-2.907351 -11.082167 1.814640
-3.259840 -12.416945 2.495400
-3.131529 -11.911269 2.843381
-0.797272 -3.030400 -0.054696
-2.830123 -10.749561 2.978490
-0.730826 -2.762161 -0.765587
-0.740683 -2.795470 -0.667655
-2.959669 -11.162445 0.605213
-0.744176 -2.806672 -0.564413
-4.394805 -16.563417 1.499253
-0.791325 -2.980297 -0.488388
-4.443091 -16.721853 2.124427
-2.947032 -11.075768 1.815266
-3.144547 -11.809784 2.375572
-3.141960 -11.783522 2.815487
-0.812485 -3.044987 -0.055010
-2.868625 -10.743350 2.979525
-0.743467 -2.770788 -0.768693
-0.748414 -2.785339 -0.665855
-2.993428 -11.132759 0.604166
-0.752948 -2.800265 -0.563650
-4.434993 -16.482561 1.493326
-0.789397 -2.931737 -0.480880
-4.440492 -16.480070 2.095665
-2.993911 -11.095928 1.820272
-3.186776 -11.802526 2.376335
-3.231902 -11.953075 2.858678
-0.825720 -3.051784 -0.055185
-2.909643 -10.746325 2.983149
-0.754149 -2.771905 -0.769728
-0.759156 -2.786470 -0.666755
-3.030169 -11.114533 0.603748
-0.765817 -2.808984 -0.565939
-4.435867 -16.259390 1.474501
-0.797545 -2.921342 -0.479628
-4.350464 -15.924461 2.026931
-3.036794 -11.100653 1.822775
-3.392280 -12.391596 2.497308
-3.278243 -11.958637 2.862727
-0.835839 -3.046955 -0.055150
-2.957365 -10.773361 2.993501
-0.768983 -2.789875 -0.775422
-0.768393 -2.783937 -0.666755
-3.074453 -11.131377 0.605213
-0.774082 -2.802645 -0.565176
-4.450484 -16.102480 1.461602
-0.814600 -2.945335 -0.484008
-4.415956 -15.955862 2.032781
-3.072534 -11.086715 1.822149
-3.442273 -12.412440 2.503796
-3.321010 -11.958967 2.865427
-0.844333 -3.038386 -0.055045
-2.997216 -10.778384 2.997642
-0.775042 -2.772154 -0.771281
-0.779681 -2.786868 -0.668105
-3.121907 -11.151351 0.606888
-0.783290 -2.796008 -0.564413
-4.451388 -15.878870 1.442776
-0.815786 -2.908095 -0.478377
-4.442673 -15.837139 2.019619
-3.116556 -11.094939 1.825277
-3.478176 -12.365721 2.496927
-3.368518 -11.959845 2.868576
-0.857644 -3.045044 -0.055219
-3.037965 -10.779014 3.000748
-0.786294 -2.775007 -0.772834
-0.792549 -2.793366 -0.670354
-3.160812 -11.140385 0.606888
-0.794654 -2.798922 -0.565558
-4.456697 -15.686912 1.426739
-0.821610 -2.890028 -0.475874
-4.446372 -15.629819 1.995245
-3.159594 -11.099193 1.827781
-3.526163 -12.370497 2.500361
-3.412436 -11.963600 2.872175
-0.869914 -3.047801 -0.055324
-3.072919 -10.759055 2.998160
-0.797090 -2.777956 -0.774387
-0.798579 -2.779485 -0.667655
-3.195532 -11.122163 0.606469
-0.806643 -2.805706 -0.567466
-4.376488 -15.212512 1.384905
-0.841026 -2.921457 -0.481505
-4.442129 -15.420420 1.970384
-3.196382 -11.088654 1.827781
-3.566077 -12.354962 2.499598
-0.886172 -3.068206 -0.167370
-3.458039 -11.972814 2.877124
-0.881127 -3.048742 -0.055394
-3.115558 -10.772931 3.004889
-0.807915 -2.780862 -0.775940
-0.810514 -2.786177 -0.669904
-3.236568 -11.118612 0.606888
-0.815883 -2.800988 -0.567084
-4.429140 -15.205567 1.385602
-0.855132 -2.933824 -0.484008
-4.439880 -15.222658 1.946985
-3.238392 -11.088805 1.829658
-3.613038 -12.355631 2.502269
-0.875563 -2.992253 -0.163393
-3.494337 -11.941966 2.872625
-0.895135 -3.057162 -0.055603
-3.158574 -10.780529 3.010066
-0.819739 -2.783442 -0.777492
-0.823476 -2.792533 -0.672154
-3.284081 -11.129662 0.608144
-0.826144 -2.797979 -0.567084
-4.458886 -15.101333 1.377584
-0.865879 -2.930670 -0.484008
-4.443869 -15.031148 1.924561
-3.279012 -11.076860 1.829658
-3.663879 -12.361128 2.506085
-0.884252 -2.981364 -0.162974
-3.543624 -11.947762 2.877124
-0.905765 -3.051944 -0.055568
-3.203017 -10.785547 3.014724
-0.829936 -2.780419 -0.777492
-0.832590 -2.785762 -0.671254
-3.321418 -11.106070 0.607516
-0.835905 -2.795078 -0.567084
-4.468509 -14.932189 1.363639
-0.881148 -2.942616 -0.486511
-3.716063 -12.402008 1.589664
-3.322995 -11.076120 1.831535
-3.711522 -12.363306 2.509138
-0.897527 -2.987823 -0.163498
-3.588513 -11.938426 2.878024
-0.917521 -3.050518 -0.055603
-3.243640 -10.777434 3.015760
-0.838518 -2.773806 -0.776457
-3.784198 -12.510196 0.228138
-0.847390 -2.799625 -0.675303
-3.367113 -11.117346 0.608772
-0.850210 -2.807175 -0.570137
-3.757831 -12.399590 1.133548
-0.890267 -2.935741 -0.485886
-3.760483 -12.392760 1.590151
-3.367380 -11.083356 1.834664
-3.755796 -12.354032 2.509902
-0.910276 -2.992316 -0.163916
-3.382744 -11.112998 2.681867
-0.929911 -3.053036 -0.055708
-3.283493 -10.773438 3.017830
-0.850457 -2.778252 -0.778528
-0.854873 -2.789197 -0.673503
-3.410985 -11.129034 0.610028
-0.861155 -2.807944 -0.570901
-3.808104 -12.409255 1.135639
-0.892392 -2.906179 -0.481505
-3.804885 -12.383353 1.590639
-3.408759 -11.087234 1.837167
-3.802942 -12.353980 2.512573
-0.918364 -2.981485 -0.163498
-3.402366 -11.045848 2.668369
-0.944743 -3.065223 -0.055987
-3.323187 -10.775414 3.021454
-0.861952 -2.782798 -0.780598
-0.864117 -2.786347 -0.673503
-3.447870 -11.117661 0.610028
-0.872789 -2.812573 -0.572427
-3.856323 -12.419392 1.137731
-0.898507 -2.891885 -0.479628
-3.850644 -12.385832 1.592589
-3.447855 -11.083413 1.838418
-3.849142 -12.358172 2.516008
-0.928246 -2.978423 -0.163498
-3.438977 -11.034504 2.668369
-0.959665 -3.077345 -0.056267
-3.354872 -10.751425 3.017830
-0.873486 -2.787298 -0.782669
-0.876270 -2.792763 -0.675753
-3.489051 -11.113180 0.610447
-0.879759 -2.802171 -0.570901
-4.462374 -14.204695 1.302630
-0.916385 -2.915272 -0.484008
-4.457522 -14.171945 1.824140
-3.486521 -11.071310 1.838418
-3.896592 -12.365937 2.520205
-0.942922 -2.990567 -0.164335
-3.472783 -11.007565 2.664770
-0.969799 -3.072070 -0.056232
-3.400527 -10.765439 3.025077
-0.880290 -2.775025 -0.780081
-3.534296 -11.134768 0.203914
-0.889552 -2.800832 -0.678452
-3.526007 -11.095224 0.610133
-0.890724 -2.802825 -0.571664
-3.521757 -11.075152 1.016759
-0.926556 -2.912055 -0.484008
-3.518130 -11.050389 1.423922
-3.534746 -11.089185 1.843424
-3.942715 -12.361612 2.522113
-0.952141 -2.983452 -0.164126
-3.505852 -10.978669 2.660721
-0.984168 -3.080095 -0.056441
-3.441027 -10.762705 3.027665
-0.891152 -2.775614 -0.781116
-0.900516 -2.801420 -0.679352
-3.553706 -11.048624 0.608249
-0.904109 -2.810913 -0.573954
-3.568940 -11.089343 1.019199
-0.942770 -2.927606 -0.487137
-3.561552 -11.053156 1.425871
-3.580710 -11.099339 1.847178
-0.968252 -2.999557 -0.275761
-3.988254 -12.355248 2.523640
-0.968688 -2.999116 -0.165172
-1.004759 -3.107084 -0.057000
-3.481549 -10.759816 3.030253
-0.907889 -2.792538 -0.786810
-0.910289 -2.798259 -0.679352
-3.611417 -11.095027 0.611493
-0.916229 -2.813180 -0.575098
-3.615733 -11.095133 1.020942
-0.951045 -2.916619 -0.485886
-3.602575 -11.048205 1.426846
-3.626788 -11.109307 1.850933
-0.963250 -2.948811 -0.271403
-4.037171 -12.351745 2.525930
-0.976570 -2.986054 -0.164649
-3.595231 -10.986639 2.668819
-1.024305 -3.130165 -0.057488
-3.513074 -10.729239 3.025077
-0.921254 -2.800362 -0.789916
-0.920539 -2.794904 -0.679352
-3.655121 -11.097529 0.612331
-0.926043 -2.809965 -0.575098
-3.664425 -11.112718 1.023731
-0.951316 -2.883267 -0.480880
-3.651756 -11.061317 1.430259
-3.676699 -11.130342 1.856565
-0.989497 -2.990211 -0.165068
-3.615184 -10.918523 2.655322
-1.036482 -3.130367 -0.057558
-3.552328 -10.722412 3.026630
-0.932244 -2.800795 -0.790951
-4.515461 -13.566073 0.249569
-0.932881 -2.801080 -0.681602
-0.935226 -2.804853 -0.574717
-3.708237 -11.114979 1.025126
-0.959622 -2.876349 -0.480254
-1.767523 -5.294853 0.685393
-1.746310 -5.225235 0.872591
-0.989500 -2.959021 -0.272972
-1.003210 -2.998278 -0.165696
-3.632811 -10.851037 2.641825
-4.172462 -12.455724 -0.229290
-3.592804 -10.719105 3.029218
-0.939678 -2.792196 -0.789398
-0.943275 -2.799654 -0.682052
-3.759305 -11.151230 0.616727
-0.945149 -2.803596 -0.575098
-1.779882 -5.276624 0.487201
-0.984817 -2.917901 -0.487763
-1.774563 -5.254798 0.681006
-1.764540 -5.219106 0.872591
-0.996630 -2.946112 -0.272100
-1.759649 -5.201650 1.067386
-1.014950 -2.998542 -0.165905
-3.660040 -10.806911 2.634177
-4.214632 -12.437296 -0.229220
-3.630818 -10.708328 3.029736
-0.949905 -2.788733 -0.789398
-0.956186 -2.805567 -0.684301
-1.812721 -5.315711 0.294337
-0.956686 -2.803829 -0.575862
-1.801141 -5.275722 0.487724
-0.985289 -2.884363 -0.482757
-1.764660 -5.165917 0.670281
-1.795531 -5.250297 0.878849
-1.009489 -2.950155 -0.272797
-1.793965 -5.239743 1.076544
-1.027228 -2.998581 -0.166114
-3.697096 -10.786050 2.632377
-4.260612 -12.430074 -0.229360
-3.680711 -10.732137 3.040089
-0.964668 -2.800012 -0.793539
-1.826055 -5.297242 0.097803
-0.965827 -2.800201 -0.683851
-1.833219 -5.315015 0.294651
-0.968389 -2.806041 -0.577006
-1.816944 -5.261869 0.487026
-0.994061 -2.877172 -0.482131
-1.804986 -5.221328 0.678325
-1.849362 -5.346675 0.896057
-1.024342 -2.959793 -0.274018
-1.830232 -5.285394 1.087230
-1.040304 -3.002525 -0.166533
-3.734758 -10.779255 2.633727
-1.844468 -5.320498 -0.098292
-3.734610 -10.766678 3.053547
-0.975219 -2.800447 -0.794574
-1.846243 -5.298711 0.097943
-0.972542 -2.789622 -0.682052
-1.845576 -5.293819 0.293814
-0.980922 -2.812082 -0.578915
-1.835040 -5.257696 0.487201
-1.000992 -2.866400 -0.480880
-1.842589 -5.273407 0.685881
-1.060110 -3.033989 -0.394613
-1.897070 -5.426289 0.910449
-1.034809 -2.958261 -0.274192
-1.871097 -5.346005 1.100968
-1.048935 -2.995289 -0.166324
-3.765329 -10.752097 2.630128
-1.856150 -5.297368 -0.097978
-3.771572 -10.757880 3.054583
-0.987707 -2.806309 -0.797163
-1.863804 -5.292560 0.097943
-0.986320 -2.799248 -0.685201
-1.860722 -5.277926 0.293291
-0.990242 -2.808814 -0.578915
-3.919670 -11.111935 1.030878
-1.010491 -2.863065 -0.480880
-1.879896 -5.323422 0.693193
-1.028369 -2.910482 -0.379014
-1.912050 -5.408459 0.908571
-1.048451 -2.964022 -0.275064
-3.895475 -11.012699 2.270627
-1.066858 -3.014388 -0.167580
-3.807393 -10.751746 2.633277
-1.872626 -5.285202 -0.097873
-3.819428 -10.773784 3.062865
-0.996041 -2.797210 -0.795610
-2.292797 -6.438925 0.119305
-0.997393 -2.799460 -0.686101
-3.963484 -11.118477 0.618611
-1.000530 -2.805166 -0.578915
-3.961041 -11.099370 1.031052
-1.026292 -2.874225 -0.483383
-1.909814 -5.348609 0.697336
-1.058791 -2.960345 -0.275064
-3.937135 -11.002045 2.271390
-1.088672 -3.040543 -0.169254
-3.850718 -10.748726 2.635976
-2.301109 -6.423215 -0.119095
-3.857666 -10.762202 3.063382
-1.004491 -2.790081 -0.794574
-2.298084 -6.379681 0.118362
-1.009629 -2.801285 -0.687450
-4.003531 -11.101996 0.618506
-1.013645 -2.810891 -0.580823
-1.032295 -2.859476 -0.481505
-3.985595 -11.034148 1.440496
-1.052543 -2.912383 -0.380232
-1.068956 -2.954570 -0.274889
-3.938780 -10.886697 2.250401
-1.097919 -3.032969 -0.169045
-3.895514 -10.755375 2.640925
-2.306240 -6.363977 -0.118153
-3.895768 -10.744360 3.062347
-1.020660 -2.802717 -0.799233
-2.317602 -6.364105 0.118223
-1.022070 -2.805068 -0.689250
-4.045681 -11.097336 0.619030
-1.027978 -2.818223 -0.583112
-4.028751 -11.038923 1.028089
-1.043446 -2.857529 -0.481818
-4.002298 -10.960500 1.432696
-1.066791 -2.919879 -0.381695
-3.994655 -10.927729 1.842798
-1.084053 -2.963919 -0.276109
-3.965161 -10.835314 2.242769
-1.118642 -3.055181 -0.170511
-3.933568 -10.737367 2.640026
-2.314683 -6.318335 -0.117455
-3.942557 -10.756089 3.069594
-1.030793 -2.803123 -0.800269
-2.347670 -6.380781 0.118676
-1.030693 -2.799834 -0.688800
-4.033447 -10.950792 0.611598
-1.038184 -2.818664 -0.583876
-4.017941 -10.902826 1.016585
-1.055835 -2.863504 -0.483383
-4.007704 -10.863358 1.421728
-1.074405 -2.910738 -0.380964
-4.013077 -10.866242 1.834664
-1.096121 -2.967975 -0.276807
-3.996460 -10.815436 2.241243
-1.125464 -3.044158 -0.170092
-3.973365 -10.741405 2.644075
-2.330764 -6.297497 -0.117210
-3.981558 -10.752014 3.072182
-1.043264 -2.806751 -0.802339
-2.362261 -6.351930 0.118292
-1.043178 -2.803525 -0.690600
-4.057015 -10.897340 0.609400
-1.046646 -2.811343 -0.583112
-4.042761 -10.853260 1.013273
-1.071342 -2.874609 -0.485886
-4.034503 -10.819543 1.417828
-1.088028 -2.916270 -0.382182
-4.050985 -10.852167 1.834664
-1.110655 -2.975330 -0.277853
-4.030754 -10.792225 2.239335
-1.150066 -3.077629 -0.172185
-4.011519 -10.729294 2.644525
-2.341522 -6.259355 -0.116652
-4.027191 -10.759762 3.078394
-1.050337 -2.795859 -0.800269
-2.383012 -6.339902 0.118223
-1.060504 -2.819931 -0.695549
-4.100655 -10.898067 0.610237
-1.057836 -2.811347 -0.583876
-4.091150 -10.867052 1.015887
-1.084852 -2.880095 -0.487450
-4.085546 -10.840688 1.422459
-1.103104 -2.925456 -0.383888
-4.088143 -10.836113 1.834351
-1.118221 -2.963979 -0.277155
-4.070481 -10.783600 2.240479
-2.341362 -6.199508 -0.347301
-4.047568 -10.711581 2.643625
-2.359821 -6.241791 -0.116477
-4.064726 -10.745639 3.078394
-1.062833 -2.799400 -0.802339
-2.401578 -6.322198 0.118048
-1.071725 -2.819855 -0.696449
-4.146480 -10.904221 0.611389
-1.073225 -2.822318 -0.586928
-4.129767 -10.854568 1.016062
-1.090682 -2.865214 -0.485573
-4.129014 -10.841202 1.424409
-1.116844 -2.930862 -0.385107
-4.127349 -10.825468 1.834976
-1.134238 -2.974951 -0.278550
-4.103200 -10.756484 2.237808
-2.374383 -6.221153 -0.348976
-4.087018 -10.702847 2.644974
-2.382308 -6.235384 -0.116512
-4.107038 -10.744017 3.082017
-1.076059 -2.804691 -0.804927
-2.425065 -6.317510 0.118118
-1.080863 -2.814278 -0.695999
-4.188100 -10.899002 0.611912
-1.086592 -2.827718 -0.588837
-4.170492 -10.847524 1.016759
-1.104932 -2.872451 -0.487450
-4.163980 -10.819312 1.423434
-1.128494 -2.930651 -0.385595
-4.175766 -10.838644 1.839669
-1.148198 -2.980269 -0.279421
-4.144252 -10.751256 2.239716
-2.421957 -6.279912 -0.352744
-4.156626 -10.772148 2.665670
-2.409822 -6.241954 -0.116792
-4.152173 -10.749438 3.087711
-1.086540 -2.802719 -0.805445
-2.444209 -6.301549 0.117978
-1.091386 -2.812304 -0.696449
-4.229011 -10.891764 0.612331
-1.100009 -2.833058 -0.590745
-4.216988 -10.855186 1.018851
-1.119246 -2.879624 -0.489327
-4.207478 -10.819512 1.425384
-1.135118 -2.917444 -0.384376
-4.223606 -10.849773 1.844050
-1.160762 -2.981813 -0.279944
-4.196006 -10.773313 2.247349
-2.455467 -6.301195 -0.354419
-4.193494 -10.755757 2.665220
-2.533335 -6.494320 -0.121678
-4.195993 -10.751075 3.092370
-1.097021 -2.800708 -0.805963
-2.477865 -6.322769 0.118537
-1.103330 -2.813920 -0.697798
-4.269921 -10.884373 0.612749
-1.106306 -2.820063 -0.588837
-4.263591 -10.862656 1.020942
-1.131457 -2.881215 -0.490266
-4.253204 -10.825083 1.428065
-1.146747 -2.917159 -0.384863
-4.278806 -10.879084 1.851559
-1.175539 -2.988868 -0.280990
-4.230711 -10.751291 2.245822
-2.487690 -6.318604 -0.355885
-4.235299 -10.751933 2.667919
-2.556722 -6.487298 -0.121713
-4.237747 -10.747147 3.095476
-1.108924 -2.802250 -0.807515
-2.507282 -6.332673 0.118886
-1.116734 -2.819110 -0.700048
-4.313777 -10.884256 0.613587
-1.119760 -2.825310 -0.590745
-4.300013 -10.844004 1.020594
-1.144421 -2.884593 -0.491517
-4.296091 -10.823086 1.429771
-1.163517 -2.929742 -0.387057
-4.311649 -10.851232 1.849368
-1.183022 -2.977340 -0.280293
-4.266039 -10.730986 2.244677
-2.525970 -6.350710 -0.358187
-4.282171 -10.760621 2.673768
-4.337631 -10.894451 -0.204682
-4.275952 -10.734082 3.095994
-1.120133 -2.801950 -0.808551
-2.533828 -6.335023 0.119095
-1.130912 -2.826051 -0.702747
-4.356525 -10.886580 0.614529
-1.133264 -2.830497 -0.592653
-4.344508 -10.845572 1.022163
-1.154483 -2.880581 -0.491517
-4.339016 -10.820921 1.431477
-1.173737 -2.925663 -0.387057
-4.352024 -10.847874 1.851246
-1.200829 -2.991682 -0.282036
-4.328346 -10.777971 2.257652
-4.024724 -10.016867 -0.565752
-4.326247 -10.761882 2.677817
-4.384175 -10.905983 -0.205170
-4.320894 -10.743144 3.102723
-1.134970 -2.810562 -0.812174
-4.404296 -10.906500 0.205310
-1.137357 -2.815058 -0.700947
-4.404230 -10.895379 0.615890
-1.146082 -2.833804 -0.594179
-4.389812 -10.848810 1.023906
-1.163288 -2.874905 -0.491204
-4.380091 -10.819353 1.433184
-1.190885 -2.940154 -0.389494
-4.376508 -10.799663 1.845614
-1.220248 -3.009629 -0.284128
-4.376604 -10.794488 2.264140
-4.052663 -9.990510 -0.565019
-4.369240 -10.765533 2.682316
-4.430495 -10.910993 -0.205554
-4.366367 -10.747683 3.108417
-1.147202 -2.813939 -0.814245
-4.448383 -10.905871 0.205589
-1.148649 -2.814679 -0.701847
-4.442991 -10.881787 0.615994
-1.159184 -2.839076 -0.596087
-4.431793 -10.848949 1.025300
-1.177053 -2.879970 -0.492769
-4.422339 -10.815022 1.434646
-1.198134 -2.928630 -0.388519
-4.425402 -10.811743 1.850307
-1.243807 -3.038757 -0.287265
-4.419465 -10.791862 2.266811
-4.076911 -9.950429 -0.563554
-4.406054 -10.748413 2.681867
-4.474624 -10.910263 -0.205834
-4.411190 -10.750249 3.113593
-1.162166 -2.822422 -0.817868
-4.495565 -10.912465 0.206008
-1.163665 -2.823264 -0.704997
-4.487800 -10.882830 0.616936
-1.172829 -2.844087 -0.597995
-4.477233 -10.851830 1.027043
-1.190868 -2.884973 -0.494333
-4.469155 -10.821537 1.437571
-1.209865 -2.928099 -0.389007
-4.466136 -10.803531 1.851559
-1.271153 -3.074904 -0.291100
-4.466864 -10.799954 2.271772
-4.075726 -9.849401 -0.558634
-4.450255 -10.749172 2.685915
-4.513446 -10.896424 -0.205869
-4.453866 -10.747278 3.117217
-1.166818 -2.805861 -0.814245
-4.541311 -10.915168 0.206357
-1.177258 -2.828180 -0.707246
-4.537280 -10.894755 0.618506
-1.184259 -2.843601 -0.598759
-4.519684 -10.847171 1.028089
-1.205491 -2.891739 -0.496210
-4.514544 -10.824193 1.440008
-1.224666 -2.934850 -0.390469
-4.512951 -10.809751 1.855313
-4.002990 -9.588256 -0.909034
-4.512103 -10.802413 2.275588
-4.079279 -9.761400 -0.554447
-4.498272 -10.758743 2.692214
-4.495829 -10.742359 3.120322
-1.181094 -2.812458 -0.817351
-1.191654 -2.834833 -0.709945
-4.577605 -10.884373 0.618820
-1.201028 -2.855737 -0.602193
-4.561385 -10.840511 1.028961
-1.215578 -2.887513 -0.496210
-4.560776 -10.828491 1.442689
-1.238757 -2.939704 -0.391688
-4.561402 -10.819414 1.859693
-4.037985 -9.577895 -0.909383
-4.552834 -10.793833 2.277115
-4.079159 -9.666136 -0.549842
-4.543381 -10.760929 2.696713
-4.602634 -10.895965 -0.206462
-4.540818 -10.744394 3.125499
-1.199954 -2.829661 -0.823562
-4.629898 -10.912653 0.206916
-1.197735 -2.821687 -0.707696
-4.627280 -10.895904 0.620390
-1.210989 -2.851527 -0.602193
-4.610883 -10.852029 1.031575
-1.227968 -2.888706 -0.497149
-4.602432 -10.821639 1.443908
-1.254452 -2.948148 -0.393394
-4.602235 -10.810697 1.860945
-4.066710 -9.552743 -0.908337
-4.598177 -10.795937 2.280931
-4.072945 -9.558130 -0.544503
-4.590850 -10.768308 2.702562
-4.626519 -10.846724 -0.205834
-4.588154 -10.751576 3.132228
-1.212105 -2.830783 -0.825115
-4.666387 -10.892748 0.206846
-1.212183 -2.828235 -0.710395
-4.658202 -10.863165 0.619448
-1.224030 -2.854500 -0.603720
-4.638525 -10.812064 1.029309
-1.242719 -2.895293 -0.499026
-4.628429 -10.778147 1.440252
-1.262384 -2.938279 -0.392663
-4.627460 -10.765529 1.855939
-4.085867 -9.505542 -0.905200
-4.638161 -10.785232 2.282076
-4.074710 -9.470469 -0.540316
-4.619936 -10.732529 2.697613
-4.642206 -10.779083 -0.204856
-4.627185 -10.739044 3.133264
-1.227346 -2.838947 -0.828739
-4.682154 -10.825003 0.205869
-1.227465 -2.836506 -0.713545
-4.671196 -10.794501 0.616413
-1.237107 -2.857417 -0.605246
-4.655647 -10.748272 1.024777
-1.255960 -2.898188 -0.500277
-4.646282 -10.716393 1.434159
-1.275793 -2.941140 -0.393638
-4.672569 -10.771872 1.859693
-4.088090 -9.419940 -0.898401
-4.660924 -10.734759 2.274825
-4.096601 -9.430542 -0.538851
-4.639506 -10.675228 2.687265
-4.654811 -10.710443 -0.203844
-4.642743 -10.677579 3.119805
-1.234156 -2.827563 -0.826668
-4.695626 -10.758101 0.204891
-1.241544 -2.843136 -0.716244
-4.690458 -10.736033 0.614006
-1.247073 -2.853081 -0.605246
-4.677171 -10.695447 1.021291
-1.270312 -2.904866 -0.502155
-4.665084 -10.662735 1.429040
-1.299867 -2.969626 -0.398025
-4.663388 -10.648736 1.841234
-4.086564 -9.327142 -0.890906
-4.679163 -10.679684 2.266429
-4.123843 -9.407758 -0.538328
-4.656880 -10.618737 2.676918
-4.674492 -10.653844 -0.203076
-4.660573 -10.617085 3.106864
-1.248198 -2.834063 -0.829774
-4.708961 -10.686747 0.203844
-1.256178 -2.849483 -0.718944
-4.712590 -10.684875 0.612017
-1.259696 -2.856115 -0.606773
-4.685266 -10.617902 1.015364
-1.283636 -2.907643 -0.503406
-4.681422 -10.599174 1.422703
-1.318249 -2.983228 -0.400463
-4.655004 -10.529411 1.823400
-4.085248 -9.236292 -0.883585
-4.695765 -10.616602 2.256507
-4.159082 -9.398786 -0.538642
-4.678139 -10.566779 2.667919
-4.693836 -10.597239 -0.202308
-4.678038 -10.556597 3.093923
-1.260933 -2.834764 -0.831327
-4.733232 -10.641011 0.203286
-1.265324 -2.843301 -0.718494
-4.732801 -10.630043 0.609819
-1.271754 -2.855066 -0.607536
-4.710363 -10.569720 1.012401
-1.294284 -2.902918 -0.503406
-4.692525 -10.524750 1.414903
-1.343210 -3.011240 -0.404850
-4.678848 -10.484237 1.818394
-4.087410 -9.154660 -0.877135
-4.713027 -10.550921 2.246204
-4.199206 -9.396244 -0.539374
-4.700133 -10.512203 2.658472
-4.698294 -10.503170 3.083053
-1.274777 -2.839157 -0.833915
-4.768923 -10.616294 0.203146
-1.280530 -2.849309 -0.721193
-4.747159 -10.557979 0.606678
-1.289763 -2.868515 -0.611352
-4.728432 -10.511422 1.008392
-1.312516 -2.916397 -0.506535
-4.718029 -10.478520 1.411003
-4.078205 -9.053279 -1.219181
-4.701822 -10.432799 1.812450
-4.092325 -9.080396 -0.871383
-4.733687 -10.498610 2.238571
-4.237730 -9.394273 -0.540107
-4.715957 -10.449550 2.646774
-4.744861 -10.508702 -0.201261
-4.721648 -10.452428 3.073217
-1.291059 -2.848767 -0.838056
-1.293688 -2.851920 -0.722993
-4.763349 -10.495874 0.604062
-1.296523 -2.856844 -0.609826
-4.752738 -10.467641 1.005777
-1.327590 -2.922588 -0.508412
-4.741436 -10.433071 1.407104
-4.085954 -8.986584 -1.212113
-4.720217 -10.376765 1.805567
-4.095948 -9.004394 -0.865457
-4.754856 -10.448071 2.231320
-4.767064 -10.470053 -0.602910
-4.737056 -10.399330 2.638226
-4.764929 -10.455683 -0.200563
-4.744480 -10.406001 3.064418
-1.298584 -2.838973 -0.836503
-4.797988 -10.484552 0.201261
-1.303636 -2.847387 -0.722993
-4.788313 -10.453762 0.602596
-1.308123 -2.855870 -0.610589
-4.769328 -10.407516 1.001594
-1.347663 -2.939484 -0.512167
-4.762928 -10.383979 1.402716
-4.108191 -8.952420 -1.209432
-4.742399 -10.329706 1.800248
-4.093272 -8.915803 -0.858310
-4.783102 -10.413570 2.227504
-4.795243 -10.435202 -0.601864
-4.759488 -10.352631 2.630578
-4.782177 -10.397202 -0.199760
-4.763816 -10.352522 3.053547
-1.312535 -2.843192 -0.839091
-4.817790 -10.431431 0.200563
-1.324193 -2.865817 -0.728841
-4.813880 -10.413416 0.601236
-1.323850 -2.863761 -0.613260
-4.788065 -10.352830 0.997933
-1.367870 -2.956275 -0.515921
-4.785804 -10.338467 1.398816
-4.138582 -8.936224 -1.209188
-4.768463 -10.291581 1.796494
-4.127720 -8.908691 -0.859007
-4.802910 -10.361187 2.219872
-4.784115 -10.311206 2.624279
-4.786906 -10.307796 3.045265
-1.328481 -2.852834 -0.843232
-4.840530 -10.390021 0.200074
-1.330396 -2.854345 -0.727042
-4.835724 -10.370242 0.599665
-1.348274 -2.891383 -0.620129
-4.813945 -10.318840 0.996190
-1.386856 -2.971413 -0.519363
-4.802424 -10.284768 1.393698
-4.179116 -8.945831 -1.212356
-4.788346 -10.245289 1.791175
-4.161457 -8.903978 -0.859879
-4.819780 -10.307855 2.211858
-4.834849 -10.335382 -0.597991
-4.805892 -10.268809 2.617531
-4.831640 -10.319135 -0.198888
-4.807130 -10.262125 3.036465
-1.345825 -2.863916 -0.847891
-4.866560 -10.351345 0.199656
-1.346157 -2.862027 -0.730191
-4.850632 -10.308122 0.597049
-1.367553 -2.906200 -0.624327
-4.836360 -10.273130 0.993401
-1.398903 -2.970128 -0.519988
-4.823908 -10.237415 1.389554
-4.217089 -8.945554 -1.214306
-4.860313 -10.305338 1.804628
-4.201012 -8.907419 -0.861622
-4.849865 -10.278541 2.209187
-4.869192 -10.314830 -0.597781
-4.827560 -10.222015 2.609882
-4.867631 -10.302206 -0.198888
-4.833015 -10.224323 3.030253
-1.362436 -2.873165 -0.852032
-4.883807 -10.294548 0.198888
-1.361988 -2.869634 -0.733340
-4.876305 -10.269476 0.595793
-1.395374 -2.938652 -0.632341
-4.859364 -10.229192 0.990786
-1.409262 -2.965227 -0.519988
-4.840864 -10.181072 1.384192
-4.252551 -8.939743 -1.215525
-4.868241 -10.229448 1.794304
-4.239783 -8.908893 -0.863190
-4.869682 -10.227868 2.201936
-4.887131 -10.259904 -0.595583
-4.852312 -10.182233 2.604033
-4.886352 -10.249051 -0.198190
-4.857032 -10.182980 3.023006
-1.385798 -2.896274 -0.860315
-4.911077 -10.259399 0.198539
-1.379573 -2.880681 -0.737390
-4.903492 -10.234380 0.594746
-1.418348 -2.960321 -0.638065
-4.881262 -10.183420 0.987997
-3.782193 -7.886981 -1.385384
-4.872077 -10.155165 1.382973
-4.330975 -9.023273 -1.228931
-4.886818 -10.176778 1.788046
-4.896000 -10.191342 2.197738
-4.921185 -10.239182 -0.595374
-4.879383 -10.147670 2.599535
-4.909092 -10.204902 -0.197666
-4.880820 -10.141592 3.015760
-2.437364 -5.048674 -1.502186
-4.955557 -10.260201 0.198888
-2.751260 -5.693792 -1.459932
-4.946141 -10.231586 0.595583
-1.438072 -2.974795 -0.642263
-4.931526 -10.196812 0.990961
-3.810561 -7.875509 -1.385697
-4.918740 -10.161324 1.386142
-4.356390 -8.995594 -1.227224
-4.930925 -10.177435 1.791175
-4.916134 -10.142389 2.190869
-4.949923 -10.207565 -0.594537
-4.905416 -10.111289 2.594585
-4.936828 -10.171512 -0.197352
-4.909438 -10.110592 3.011619
-2.463432 -5.057503 -1.507362
-5.007109 -10.275197 0.199516
-4.985329 -10.221439 0.596002
-3.212747 -6.587108 -1.424580
-4.971458 -10.188487 0.991832
-3.836296 -7.858609 -1.385071
-4.955051 -10.145875 1.386386
-4.359877 -8.923258 -1.219425
-4.957746 -10.142414 1.788046
-4.943743 -10.109294 2.187434
-4.974991 -10.168695 -0.593280
-4.934684 -10.081853 2.591436
-4.960869 -10.130871 -0.196898
-4.936202 -10.076045 3.006442
-2.481923 -5.050607 -1.507880
-5.051769 -10.275602 0.199865
-2.790084 -5.672698 -1.459482
-5.013908 -10.194098 0.595374
-3.235721 -6.575853 -1.424580
-5.006113 -10.169284 0.991658
-3.867195 -7.852258 -1.386322
-4.984295 -10.116052 1.384680
-4.473499 -9.075354 -1.242336
-4.988733 -10.120603 1.787108
-4.970315 -10.074369 2.183618
-5.001617 -10.133359 -0.592234
-4.952590 -10.029620 2.582438
-4.987354 -10.100020 -0.196619
-4.957609 -10.035372 2.999195
-2.501253 -5.045375 -1.508915
-5.094696 -10.276711 0.200214
-2.813209 -5.672142 -1.461732
-5.077870 -10.233786 0.598723
-3.253416 -6.553968 -1.422290
-5.064621 -10.198143 0.996190
-3.899364 -7.851776 -1.388512
-5.047845 -10.159912 1.392967
-4.489433 -9.032027 -1.238436
-4.986209 -10.027070 1.773654
-4.995826 -10.042012 2.180184
-5.028073 -10.102412 -0.591396
-4.973662 -9.988719 2.576139
-5.010989 -10.059281 -0.196165
-4.983993 -10.000715 2.994019
-2.513651 -5.028413 -1.506327
-5.143063 -10.283902 0.200703
-2.832118 -5.660546 -1.461282
-5.116241 -10.221357 0.599037
-3.276890 -6.546654 -1.423054
-5.114470 -10.213359 0.999328
-3.928518 -7.841649 -1.389138
-5.109961 -10.195471 1.400279
-4.504028 -8.982585 -1.233805
-5.024723 -10.016667 1.774906
-4.847238 -9.658648 -0.945466
-5.024684 -10.012229 2.177512
-5.057930 -10.074089 -0.590768
-5.002377 -9.959106 2.572990
-5.039786 -10.029220 -0.195921
-5.002385 -9.950462 2.984184
-2.532065 -5.019166 -1.506327
-5.191536 -10.290883 0.201191
-2.854494 -5.655845 -1.462632
-5.169897 -10.239093 0.601131
-3.303518 -6.539856 -1.424198
-5.157259 -10.205215 1.000374
-3.956341 -7.825434 -1.388825
-5.150000 -10.186429 1.401498
-4.527290 -8.950868 -1.231612
-5.043603 -9.967339 1.769274
-5.047155 -9.965722 2.171407
-5.090307 -10.046576 -0.590245
-5.032678 -9.928537 2.569841
-5.073861 -10.009784 -0.195886
-5.028351 -9.915709 2.979007
-2.553074 -5.017184 -1.508397
-5.221961 -10.257529 0.200912
-2.875205 -5.645344 -1.462632
-5.210110 -10.225413 0.601445
-3.331676 -6.538780 -1.426488
-5.186517 -10.174726 0.999153
-3.984529 -7.813337 -1.389138
-5.183692 -10.160411 1.400523
-4.561874 -8.937749 -1.232099
-5.070217 -9.929435 1.765832
-4.721554 -9.246619 -0.908337
-5.070301 -9.925316 2.166445
-5.113529 -10.005626 -0.588884
-5.062866 -9.902235 2.567591
-5.106872 -9.983998 -0.195746
-5.062020 -9.892055 2.977454
-2.574101 -5.015116 -1.510468
-5.254082 -10.232123 0.200772
-2.894893 -5.635273 -1.462632
-5.235727 -10.187625 0.600293
-3.354479 -6.527111 -1.426488
-5.231112 -10.174278 1.000896
-4.014489 -7.804651 -1.390077
-5.215491 -10.135195 1.399548
-4.590316 -8.916476 -1.231368
-5.107563 -9.916944 1.766771
-5.102216 -9.902322 2.165301
-5.145677 -9.982390 -0.588570
-5.083112 -9.856789 2.560393
-5.131606 -9.946562 -0.195362
-5.092089 -9.865742 2.974866
-2.591591 -5.006101 -1.510468
-5.286088 -10.206617 0.200633
-2.918133 -5.632055 -1.464431
-5.264823 -10.156875 0.599561
-3.377242 -6.515362 -1.426488
-5.262927 -10.148881 1.000199
-4.048985 -7.804617 -1.392580
-5.246266 -10.108119 1.398329
-4.616840 -8.891590 -1.230149
-5.138504 -9.892043 1.765519
-4.797014 -9.234647 -0.910429
-5.129508 -9.870515 2.162248
-5.175884 -9.955507 -0.588047
-5.110292 -9.825155 2.556794
-5.163526 -9.923267 -0.195258
-5.118468 -9.832484 2.970207
-2.601897 -4.983324 -1.506327
-5.317981 -10.181014 0.200493
-2.939580 -5.625288 -1.465331
-5.297470 -10.133125 0.599247
-3.399965 -6.503533 -1.426488
-5.287241 -10.109262 0.998108
-4.076204 -7.790436 -1.392580
-5.278757 -10.084468 1.397598
-4.655217 -8.889488 -1.232099
-5.171169 -9.870547 1.764894
-7.039029 -13.435853 -1.327033
-5.157552 -9.840377 2.159576
-5.209676 -9.935610 -0.587942
-5.140939 -9.800353 2.554994
-5.186051 -9.882166 -0.194804
-5.141981 -9.794033 2.963996
-2.619276 -4.974211 -1.506327
-5.346031 -10.148234 0.200214
-2.961015 -5.618441 -1.466231
-5.325456 -10.104901 0.598619
-3.425393 -6.496836 -1.427633
-5.314131 -10.074884 0.996539
-4.104295 -7.777907 -1.392893
-8.892995 -16.845682 2.338917
-4.687145 -8.874939 -1.232343
-5.200182 -9.846357 1.763642
-4.707791 -8.910266 -0.881667
-5.181778 -9.803222 2.155379
-5.236857 -9.903240 -0.587105
-5.168736 -9.770292 2.551845
-5.214118 -9.856074 -0.194629
-5.165394 -9.759852 2.958819
-2.642059 -4.975276 -1.509433
-5.372149 -10.116323 0.199935
-2.976887 -5.603428 -1.464881
-5.359759 -10.084487 0.598514
-3.456346 -6.500440 -1.431068
-5.346460 -10.050997 0.996016
-4.129138 -7.762510 -1.392580
-5.334221 -10.023768 1.394185
-4.722147 -8.869861 -1.233805
-5.239164 -9.836863 1.765207
-7.017418 -13.170107 -1.305593
-5.205027 -9.768658 2.151562
-5.262154 -9.871719 -0.586267
-5.197440 -9.746220 2.550045
-5.250373 -9.841343 -0.194699
-5.197612 -9.738355 2.957784
-2.658543 -4.966486 -1.509433
-5.407432 -10.097507 0.199935
-2.998270 -5.596438 -1.465781
-5.381853 -10.045530 0.597258
-3.479736 -6.492404 -1.431831
-5.376937 -10.027944 0.995493
-4.160878 -7.756753 -1.394144
-5.365421 -9.998092 1.393210
-4.754958 -8.856821 -1.234293
-5.278297 -9.831617 1.767397
-7.083680 -13.188889 -1.309777
-5.235377 -9.743510 2.150036
-5.291852 -9.844494 -0.585744
-5.221276 -9.709138 2.545096
-5.278244 -9.815072 -0.194525
-5.228047 -9.717663 2.956749
-2.681370 -4.967375 -1.512539
-5.433288 -10.065442 0.199656
-3.021441 -5.595039 -1.468031
-5.414986 -10.023170 0.597049
-3.497712 -6.471581 -1.429923
-5.410958 -10.007361 0.995319
-4.193152 -7.755076 -1.396334
-9.146173 -16.908447 2.360366
-4.791861 -8.854971 -1.236243
-5.270264 -9.734962 1.753318
-7.160035 -13.220145 -1.315354
-5.257372 -9.707107 2.145838
-5.317809 -9.814600 -0.585011
-5.252516 -9.690058 2.544646
-5.307707 -9.787798 -0.194350
-5.256409 -9.689164 2.953643
-2.691364 -4.946579 -1.508915
-5.460740 -10.032366 0.199376
-3.040953 -5.584458 -1.468031
-5.444207 -9.993684 0.596421
-3.523848 -6.468568 -1.431831
-5.433627 -9.970120 0.993401
-4.223034 -7.745595 -1.397273
-5.427651 -9.950881 1.391748
-4.834150 -8.859102 -1.239168
-5.310839 -9.728642 1.755508
-7.198111 -13.185834 -1.314309
-5.294991 -9.695587 2.147365
-5.355864 -9.802989 -0.585430
-5.282570 -9.664824 2.542847
-5.338003 -9.762193 -0.194210
-5.279073 -9.650419 2.947431
-2.707685 -4.935460 -1.508397
-5.489954 -10.002726 0.199167
-3.064179 -5.580642 -1.469830
-5.480981 -9.978120 0.596630
-3.546406 -6.456228 -1.431831
-5.461679 -9.938869 0.992181
-4.249094 -7.729075 -1.396960
-5.460438 -9.928397 1.391261
-4.874616 -8.859565 -1.241605
-5.353337 -9.725621 1.758324
-7.280600 -13.226957 -1.320932
-5.311754 -9.646091 2.140495
-5.389089 -9.782484 -0.585325
-5.312513 -9.639498 2.541047
-5.373976 -9.747004 -0.194280
-5.310861 -9.628550 2.946396
-2.728638 -4.932740 -1.510468
-5.517090 -9.969503 0.198888
-3.078922 -5.561388 -1.467581
-5.510941 -9.950191 0.596107
-3.575580 -6.455832 -1.434502
-5.495374 -9.918000 0.992007
-4.278921 -7.719380 -1.397899
-5.483509 -9.888444 1.388336
-4.918992 -8.866797 -1.245017
-5.390129 -9.712056 1.759262
-7.485711 -13.482370 -1.349171
-5.338725 -9.615474 2.137824
-5.417383 -9.753138 -0.584697
-5.343287 -9.615786 2.539697
-5.406997 -9.726437 -0.194245
-5.342559 -9.606577 2.945361
-2.750464 -4.929454 -1.512539
-5.553806 -9.953677 0.198957
-3.097366 -5.548904 -1.467131
-5.534928 -9.911712 0.594955
-3.600175 -6.444397 -1.434884
-5.528772 -9.892574 0.991484
-4.312969 -7.713989 -1.399776
-5.514118 -9.862312 1.387361
-4.948945 -8.847841 -1.244774
-5.414352 -9.675943 1.756134
-5.156121 -9.210690 -0.923502
-5.372011 -9.592418 2.137061
-5.448212 -9.724504 -0.584174
-5.370872 -9.582538 2.536098
-5.439936 -9.705760 -0.194210
-5.375115 -9.586185 2.944843
-2.770496 -4.924874 -1.514091
-5.582405 -9.919312 0.198678
-3.123419 -5.547703 -1.469830
-5.568279 -9.886138 0.594641
