# This PCD file was generated using the MATLAB® pcwrite function
# from Computer Vision Toolbox®.
# .PCD v.7 - Point Cloud Data file format
VERSION .7
FIELDS x y z
SIZE 4 4 4
TYPE F F F
COUNT 1 1 1
WIDTH 1577
HEIGHT 1
VIEWPOINT 0 0 0 1 0 0 0
POINTS 1577
DATA ascii
-13.285404 -9.645327 -0.286568
-13.330359 -9.674412 4.413383
-5.009181 -3.626044 -1.656960
-13.522484 -9.785049 0.291350
-5.772676 -4.175651 -1.644842
-13.504563 -9.764903 0.873383
-6.274590 -4.537041 -1.505101
-13.468493 -9.735242 1.453932
-7.245193 -5.235016 -1.415732
-13.329217 -9.627484 2.018888
-9.246165 -6.675909 -1.400279
-13.273727 -9.580361 2.592745
-12.184463 -8.794181 -1.314657
-13.193934 -9.519264 3.162469
-13.503525 -9.739052 -0.872545
-13.377898 -9.644898 3.807522
-13.317371 -9.597724 -0.286534
-13.368750 -9.631212 4.414936
-5.021809 -3.608536 -1.656960
-13.559806 -9.740121 0.291420
-5.780885 -4.150928 -1.643043
-13.533700 -9.714209 0.873069
-6.301554 -4.523124 -1.507773
-13.512106 -9.695137 1.454978
-7.244160 -5.195878 -1.411978
-13.370807 -9.586684 2.020106
-9.285547 -6.655157 -1.402716
-13.324752 -9.546624 2.596187
-12.231192 -8.759905 -1.316226
-13.239848 -9.482298 3.165521
-13.550429 -9.701157 -0.873383
-13.414658 -9.600408 3.808421
-13.344283 -9.546528 -0.286394
-13.400717 -9.583365 4.414418
-5.035001 -3.590106 -1.656960
-13.592095 -9.691568 0.291385
-5.800100 -4.134117 -1.644392
-13.583793 -9.678498 0.874115
-6.338878 -4.514804 -1.512734
-13.536188 -9.637458 1.453758
-7.242233 -5.154401 -1.407910
-13.407422 -9.542254 2.020594
-7.356397 -5.233719 -1.108524
-13.343508 -9.489751 2.593371
-12.268190 -8.721773 -1.316923
-13.282516 -9.439395 3.167429
-13.590778 -9.654897 -0.873697
-13.456108 -9.555694 3.810221
-13.380788 -9.502205 -0.286464
-13.426212 -9.530938 4.411830
-5.042771 -3.569161 -1.655407
-13.625893 -9.640531 0.291350
-5.818395 -4.115081 -1.645292
-13.609341 -9.625256 0.873592
-6.383453 -4.513052 -1.519603
-13.571375 -9.591300 1.453932
-7.247274 -5.119971 -1.405407
-13.448794 -9.497631 2.021569
-7.345435 -5.187397 -1.104136
-13.373323 -9.440836 2.592745
-12.290421 -8.673153 -1.316052
-13.304155 -9.385050 3.164758
-13.497277 -9.517756 3.812920
-13.425317 -9.463503 -0.286708
-13.453083 -9.479558 4.409759
-5.059320 -3.555752 -1.656960
-13.661060 -9.597591 0.291420
-5.828820 -4.093524 -1.644392
-13.652627 -9.588108 0.874325
-6.435341 -4.517803 -1.528380
-7.259362 -5.092507 -1.404469
-7.346342 -5.151613 -1.101699
-13.381912 -9.380562 2.588365
-7.375152 -5.167975 -0.787888
-13.343242 -9.346515 3.166666
-7.457157 -5.221557 -0.477095
-13.512803 -9.461766 3.808421
-13.492360 -9.440431 4.412347
-5.064747 -3.534532 -1.654889
-5.839165 -4.071942 -1.643492
-6.485720 -4.521137 -1.536776
-7.373944 -5.138399 0.786319
-7.276210 -5.068406 -1.404469
-7.389451 -5.145373 1.105599
-7.338213 -5.107792 -1.097799
-7.330751 -5.100698 1.414481
-7.397156 -5.146903 -0.788411
-7.314045 -5.087184 1.731782
-7.366200 -5.121549 -0.470186
-7.368763 -5.119520 -0.156618
-7.295753 -5.066905 2.380100
-5.084995 -3.522331 -1.657477
-7.470508 -5.172824 0.158607
-5.853343 -4.051537 -1.643492
-7.349880 -5.085505 0.468407
-6.528908 -4.517460 -1.543263
-7.337762 -5.075224 0.780567
-7.290606 -5.040730 -1.403843
-7.315917 -5.056343 1.091949
-7.355998 -5.082145 -1.097799
-7.324128 -5.058241 1.409788
-7.395403 -5.107466 -0.786319
-7.307525 -5.044891 1.726058
-7.393896 -5.102612 -0.470814
-7.274497 -5.018342 2.040306
-7.373421 -5.084683 -0.156339
-7.303852 -5.034828 2.376994
-5.087708 -3.497993 -1.654371
-7.472038 -5.135391 0.158258
-5.867450 -4.031080 -1.643492
-7.377467 -5.066600 0.469035
-6.572151 -4.513535 -1.549751
-7.355433 -5.049581 0.780567
-7.327703 -5.028663 -1.407597
-7.336798 -5.033020 1.092437
-7.399886 -5.074401 -1.101699
-7.331964 -5.025943 1.407910
-7.417362 -5.082576 -0.786668
-7.331570 -5.023790 1.727585
-7.405071 -5.072259 -0.470396
-7.301618 -4.999524 2.043005
-7.391125 -5.058914 -0.156339
-7.313412 -5.003848 2.374406
-5.098898 -3.478233 -1.653854
-7.476703 -5.100262 0.157979
-5.894366 -4.019357 -1.647092
-7.401708 -5.045319 0.469454
-6.629208 -4.517056 -1.559291
-7.380478 -5.027075 0.781264
-7.346085 -5.001772 -1.407597
-7.377293 -5.023021 1.095849
-7.450375 -5.070879 -1.106574
-7.388661 -5.026986 1.415419
-7.471302 -5.081306 -0.790503
-7.369414 -5.010131 1.732164
-13.261408 -9.012442 -0.840306
-7.348909 -4.992437 2.051104
-13.651333 -9.273952 -0.288069
-7.351609 -4.992400 2.381135
-5.114209 -3.462580 -1.654889
-5.891303 -3.985714 -1.642143
-13.693775 -9.260931 0.866369
-6.679088 -4.516984 -1.567305
-7.363499 -4.976099 -1.407597
-7.478781 -5.050202 -1.108036
-7.462703 -5.037448 1.426057
-12.575233 -8.488492 -1.327382
-7.440564 -5.020614 1.744758
-13.325903 -8.988433 -0.842400
-13.630627 -9.190516 3.795374
-13.701815 -9.235032 -0.288418
-13.611808 -9.170913 4.397853
-5.124660 -3.443630 -1.654371
-13.721283 -9.216845 0.288523
-5.910034 -3.968384 -1.643492
-13.699484 -9.195268 0.864695
-6.738826 -4.523185 -1.577609
-7.407074 -4.967970 -1.412603
-9.534532 -6.390045 -1.409297
-7.440855 -4.984982 1.418548
-12.616374 -8.452307 -1.328602
-7.441732 -4.983685 1.740941
-13.242676 -8.865201 -0.835177
-13.612418 -9.109282 3.781427
-13.762224 -9.206049 -0.289012
-13.610013 -9.100796 4.386983
-5.139864 -3.427863 -1.655407
-13.770010 -9.179982 0.288872
-5.920606 -3.945570 -1.642593
-13.768126 -9.175261 0.867102
-6.792154 -4.524667 -1.586386
-7.455933 -4.964972 0.783704
-7.434236 -4.948654 -1.414481
-7.435309 -4.947493 1.096580
-9.556779 -6.356725 -1.409297
-7.414581 -4.931835 1.410413
-12.649118 -8.410425 -1.328951
-7.439462 -4.944639 1.736362
-13.258569 -8.808973 -0.834235
-13.655499 -9.069253 3.784577
-13.799339 -9.164784 -0.289151
-13.640118 -9.055613 4.386983
-5.145354 -3.405635 -1.653336
-13.830394 -9.154137 0.289501
-5.940158 -3.930216 -1.644392
-13.810068 -9.133753 0.867730
-6.827559 -4.513924 -1.590966
-7.426676 -4.908159 0.778824
-7.496749 -4.954469 -1.423241
-7.408611 -4.894361 1.090243
-9.596028 -6.337031 -1.411978
-7.388888 -4.877629 1.402279
-12.670086 -8.360729 -1.328079
-7.413213 -4.891827 1.726440
-13.317718 -8.784753 -0.836119
-13.709900 -9.040013 3.791325
-13.851279 -9.129768 -0.289570
-13.692616 -9.021761 4.393713
-5.158235 -3.389615 -1.653854
-13.895686 -9.127763 0.290199
-5.958728 -3.912666 -1.645742
-13.870253 -9.104122 0.869510
-6.885164 -4.519267 -1.600888
-7.417924 -4.867109 0.776209
-7.773329 -5.098360 -1.472361
-7.404069 -4.854320 1.087075
-9.621409 -6.305674 -1.412466
-13.831891 -9.061683 2.619026
-12.700860 -8.317543 -1.328254
-13.787998 -9.029489 3.203683
-13.662458 -8.943869 -0.855798
-13.762570 -9.005975 3.797174
-13.916533 -9.103256 -0.290268
-13.735343 -8.981311 4.397336
-5.169004 -3.369632 -1.653336
-13.950917 -9.094490 0.290687
-5.954391 -3.880137 -1.640793
-13.927050 -9.072006 0.871080
-6.929650 -4.512215 -1.607375
-13.902931 -9.049380 1.451317
-7.830046 -5.094611 -1.479557
-13.871890 -9.025730 2.032050
-9.648354 -6.275298 -1.413197
-13.891593 -9.031650 2.624345
-12.748194 -8.285101 -1.330171
-13.865448 -9.007772 3.213987
-13.979904 -9.078656 -0.873592
-13.826543 -8.975632 3.805722
-13.985126 -9.078578 -0.291036
-13.790917 -8.949084 4.405100
-5.183979 -3.353667 -1.654371
-14.007665 -9.058499 0.291176
-5.965299 -3.856173 -1.639893
-13.978760 -9.036347 0.872336
-6.979986 -4.510375 -1.615389
-13.966233 -9.021335 1.454629
-7.857738 -5.073678 -1.481435
-13.938233 -8.996355 2.036924
-9.666286 -6.236661 -1.412466
-13.969511 -9.013089 2.633105
-12.783731 -8.244873 -1.330868
-13.905059 -8.964633 3.215895
-13.689175 -8.822070 -0.853495
-13.874170 -8.937869 3.810221
-14.050351 -9.051367 -0.291734
-13.857804 -8.923901 4.416489
-5.203783 -3.340769 -1.656960
-14.064552 -9.029283 0.291734
-5.982974 -3.839527 -1.641243
-14.043839 -9.009065 0.874429
-7.032047 -4.509295 -1.623785
-14.037894 -8.998337 1.458813
-7.889488 -5.057188 -1.484250
-13.978017 -8.956513 2.038387
-9.693603 -6.208855 -1.413441
-14.027504 -8.981318 2.638111
-12.814112 -8.201273 -1.331042
-13.971087 -8.941759 3.224291
-13.728451 -8.783085 -0.854123
-13.930000 -8.908609 3.817420
-14.112189 -9.021650 -0.292363
-13.921427 -8.896277 4.426841
-5.200170 -3.314151 -1.652301
-14.119596 -8.995175 0.292223
-6.002915 -3.822806 -1.643043
-14.108900 -8.981435 0.876523
-7.070148 -4.500710 -1.629127
-14.096233 -8.969920 1.461776
-7.912093 -5.032797 -1.485189
-14.081228 -8.953463 2.048867
-9.728618 -6.183501 -1.415391
-14.097118 -8.956662 2.645307
-12.841238 -8.158734 -1.331042
-14.048621 -8.922404 3.234976
-13.753964 -8.731901 -0.853809
-13.993920 -8.880815 3.826417
-14.180745 -8.995901 -0.293131
-13.976867 -8.863150 4.434606
-5.206809 -3.292880 -1.650748
-14.198237 -8.975754 0.293200
-6.022811 -3.805994 -1.644842
-14.179001 -8.956667 0.878930
-7.105732 -4.488587 -1.633707
-14.161151 -8.941935 1.465262
-7.929612 -5.005148 -1.485189
-14.140934 -8.922266 2.053011
-9.751822 -6.150562 -1.415634
-14.173414 -8.935840 2.653754
-12.869641 -8.113856 -1.331042
-14.092967 -8.881689 3.238029
-13.767461 -8.673191 -0.852762
-14.064414 -8.856832 3.837215
-14.257751 -8.975112 -0.294073
-14.046963 -8.839001 4.447029
-5.228090 -3.280846 -1.653854
-14.276911 -8.955894 0.294178
-6.021201 -3.775628 -1.640793
-14.250926 -8.936123 0.881547
-7.126348 -4.466884 -1.634852
-14.236174 -8.919951 1.469794
-7.948709 -4.978487 -1.485502
-14.207326 -8.894972 2.058130
-9.776597 -6.118591 -1.416122
-14.223061 -8.901368 2.657509
-12.914775 -8.079453 -1.332786
-14.167163 -8.859505 3.247951
-13.878944 -8.675898 -0.857786
-14.138209 -8.834536 3.848912
-14.345093 -8.963810 -0.295260
-14.113881 -8.815908 4.458935
-5.244429 -3.265641 -1.655407
-14.479677 -9.016315 0.297738
-6.035343 -3.756672 -1.641243
-14.399043 -8.959128 0.888769
-7.156901 -4.451313 -1.638286
-7.975240 -4.958360 -1.487379
-14.363196 -8.926396 2.076410
-9.801892 -6.089279 -1.416853
-14.240621 -8.843328 2.655006
-12.954748 -8.041678 -1.334006
-14.243168 -8.841467 3.258636
-14.584779 -9.049995 -0.899551
-14.202207 -8.809174 3.858360
-14.422182 -8.942133 -0.296202
-14.179051 -8.787960 4.469805
-5.256874 -3.249246 -1.655924
-6.053394 -3.738652 -1.642593
-14.690365 -9.072953 0.904889
-7.159930 -4.420336 -1.635615
-14.734003 -9.092806 1.514767
-7.990819 -4.929452 -1.487066
-14.531132 -8.960601 2.096153
-9.826467 -6.057113 -1.417341
-14.295091 -8.811609 2.659699
-12.991522 -8.004945 -1.335052
-14.319077 -8.819493 3.268940
-14.667300 -9.030448 -0.902691
-14.489222 -8.917315 -0.296970
-5.255008 -3.222798 -1.651783
-6.059112 -3.714485 -1.640793
-14.810499 -9.075884 0.910332
-7.182012 -4.399420 -1.637141
-20.067017 -12.287449 2.058619
-8.012176 -4.906020 -1.488005
-14.648809 -8.966253 2.108827
-9.858352 -6.031745 -1.419047
-14.418450 -8.818338 2.676907
-13.021086 -7.960587 -1.335226
-14.398498 -8.802683 3.280389
-14.806236 -9.048414 -0.909390
-14.659294 -8.955096 3.965887
-14.586821 -8.907328 -0.298331
-14.790931 -9.028428 4.643214
-5.261275 -3.201422 -1.650230
-15.041426 -9.148923 0.307302
-6.082676 -3.698326 -1.643492
-14.911932 -9.063035 0.914519
-7.205712 -4.379421 -1.639049
-20.130220 -12.229740 2.060710
-8.023349 -4.872522 -1.486753
-14.769811 -8.966071 2.121502
-9.883789 -5.997629 -1.419534
-14.499649 -8.795145 2.685980
-13.062419 -7.923355 -1.336620
-14.479348 -8.779369 3.291455
-15.242397 -9.238397 -0.934092
-14.775352 -8.951800 3.988382
-14.694632 -8.899385 -0.299867
-14.906557 -9.024176 4.669096
-5.280686 -3.188030 -1.652818
-6.085537 -3.671031 -1.640793
-15.025578 -9.060429 0.919543
-7.227682 -4.358295 -1.640576
-20.302467 -12.237572 2.073958
-8.045383 -4.847544 -1.487692
-14.884343 -8.964641 2.133445
-9.921670 -5.973332 -1.421972
-14.589501 -8.780128 2.696931
-13.100242 -7.883874 -1.337666
-14.563739 -8.761157 3.303667
-15.041767 -9.045157 -0.919857
-14.886680 -8.948359 4.009977
-14.787313 -8.885113 -0.301124
-74.795807 -44.924114 23.378607
-5.286811 -3.166599 -1.651266
-6.099987 -3.650767 -1.641243
-15.139380 -9.057145 0.924567
-7.246220 -4.335056 -1.641339
-20.413462 -12.207531 2.080930
-8.063951 -4.820444 -1.488005
-14.978593 -8.950309 2.142463
-9.928826 -5.930520 -1.420022
-14.701474 -8.777752 2.711948
-13.143080 -7.847288 -1.339235
-14.656607 -8.747498 3.317787
-15.292796 -9.123576 -0.933255
-15.008206 -8.950234 4.034272
-14.892096 -8.877474 -0.302625
-15.131827 -9.016805 4.719824
-5.301154 -3.150099 -1.652301
-15.370224 -9.129801 0.312049
-6.114369 -3.630447 -1.641693
-15.249910 -9.051135 0.929382
-7.251178 -4.303723 -1.639049
-15.270851 -9.059960 1.553464
-8.082429 -4.793273 -1.488318
-15.110492 -8.957692 2.156844
-9.956299 -5.899873 -1.420997
-14.822102 -8.779741 2.728530
-13.158390 -7.794257 -1.338015
-14.759693 -8.739295 3.334197
-15.255801 -9.029448 -0.929068
-15.139988 -8.957334 4.061266
-15.003890 -8.873279 -0.304265
-15.262993 -9.022912 4.750883
-5.305462 -3.127650 -1.650230
-6.132042 -3.612049 -1.643043
-15.339927 -9.032303 0.932941
-7.257699 -4.273406 -1.637141
-15.316119 -9.014684 1.554858
-8.107624 -4.770039 -1.489882
-15.216958 -8.949171 2.167568
-9.988811 -5.872125 -1.422703
-14.942921 -8.780990 2.745112
-13.161099 -7.730838 -1.335400
-14.891679 -8.747382 3.357094
-15.345786 -9.010523 -0.932627
-15.240069 -8.944874 4.079712
-15.131360 -8.877519 -0.306220
-15.214408 -8.922668 4.726036
-5.316889 -3.108184 -1.650230
-6.144613 -3.590621 -1.643043
-15.361014 -8.972661 0.932313
-7.283484 -4.252715 -1.639431
-15.345615 -8.956478 1.554510
-8.116520 -4.735316 -1.488318
-15.330403 -8.944018 2.179268
-10.022967 -5.845222 -1.424653
-15.058812 -8.778519 2.760756
-13.196612 -7.689866 -1.336272
-14.994891 -8.734244 3.373122
-15.375255 -8.952207 -0.932417
-15.260964 -8.882091 4.076563
-15.303978 -8.907125 -0.309082
-15.252139 -8.873396 4.728106
-5.327707 -3.089605 -1.650230
-15.473472 -8.969662 0.312189
-6.145929 -3.561237 -1.639893
-15.440631 -8.947020 0.935244
-7.301683 -4.229232 -1.640194
-15.397475 -8.914841 1.556602
-8.143259 -4.712889 -1.490195
-15.371675 -8.892735 2.180486
-10.052915 -5.813417 -1.425871
-15.193671 -8.786224 2.779841
-13.240625 -7.653726 -1.338015
-15.128981 -8.741765 3.396400
-15.651999 -9.040334 -0.947281
-15.320562 -8.845332 4.084211
-14.344391 -8.281739 -0.289117
-15.306446 -8.833620 4.735353
-5.348505 -3.076770 -1.653336
-15.496197 -8.914310 0.312049
-6.161083 -3.542781 -1.640793
-15.490814 -8.904015 0.936395
-7.316401 -4.203721 -1.640194
-15.504519 -8.904698 1.564271
-8.162269 -4.687829 -1.490821
-15.425181 -8.855548 2.183899
-10.066971 -5.777084 -1.425140
-15.296217 -8.774413 2.792981
-13.289730 -7.620343 -1.340281
-15.386106 -8.822407 3.447537
-14.181280 -8.128276 -0.856635
-15.348122 -8.793509 4.083762
-14.310744 -8.195842 -0.287860
-15.345568 -8.784939 4.737942
-5.355323 -3.057101 -1.652301
-19.834547 -11.318016 0.398613
-6.176798 -3.523183 -1.641693
-19.802179 -11.290387 1.194621
-7.326889 -4.177490 -1.639431
-8.183732 -4.662240 -1.491759
-15.630225 -8.900870 2.208517
-10.095701 -5.746819 -1.426359
-18.132168 -10.317254 3.304209
-13.328781 -7.584114 -1.341676
-15.640361 -8.895801 3.497529
-14.218249 -8.083660 -0.857158
-15.632860 -8.884310 4.151247
-14.264501 -8.103364 -0.286359
-15.535731 -8.821938 4.787117
-5.355876 -3.032678 -1.649195
-19.839130 -11.229012 0.397915
-6.185666 -3.499682 -1.640793
-19.808439 -11.202516 1.192632
-7.336300 -4.148990 -1.638286
-18.815094 -10.636403 1.890931
-8.208555 -4.638506 -1.493324
-10.126074 -5.717396 -1.427821
-18.257523 -10.304389 3.320478
-13.384668 -7.554192 -1.344639
-18.396915 -10.378827 4.105828
-14.258560 -8.040843 -0.857891
-18.349386 -10.343566 4.862992
-14.250887 -8.029965 -0.285521
-18.055916 -10.169833 5.552704
-5.363061 -3.012072 -1.648160
-6.208041 -3.483791 -1.643492
-7.354163 -4.125277 -1.639049
-18.952904 -10.627178 1.901041
-8.219528 -4.606927 -1.492385
-10.166754 -5.693654 -1.430746
-18.415762 -10.309104 3.342692
-13.447465 -7.527862 -1.348299
-18.535828 -10.372068 4.128725
-14.370211 -8.037823 -0.862915
-18.507843 -10.347928 4.895385
-14.277087 -7.979193 -0.285486
-18.200932 -10.167987 5.586350
-5.380292 -2.997094 -1.650230
-6.215056 -3.459256 -1.642143
-19.140915 -10.649323 1.147937
-7.375381 -4.103399 -1.640576
-19.352060 -10.762374 1.937298
-8.223472 -4.571488 -1.490195
-18.956976 -10.533985 2.662845
-10.190036 -5.660061 -1.431234
-18.555258 -10.302290 3.361464
-13.515466 -7.504086 -1.352483
-18.702383 -10.379703 4.157728
-20.357166 -11.288810 5.374081
-14.262877 -7.906040 -0.284649
-18.314039 -10.147464 5.610162
-5.394104 -2.980162 -1.651266
-6.216856 -3.431891 -1.639443
-19.230433 -10.611390 1.151077
-7.393097 -4.079525 -1.641339
-19.324961 -10.659152 1.930848
-8.263597 -4.556110 -1.494575
-18.965813 -10.452423 2.658946
-10.207993 -5.623498 -1.430990
-18.698393 -10.296530 3.380862
-13.548562 -7.460704 -1.353180
-18.882973 -10.393883 4.189784
-14.401475 -7.923828 -0.861450
-20.393036 -11.215798 5.373181
-14.360479 -7.894742 -0.286045
-18.454321 -10.141157 5.642255
-5.409556 -2.964100 -1.652818
-6.230508 -3.411103 -1.639893
-19.365471 -10.597892 1.156939
-7.393515 -4.046154 -1.638286
-19.384771 -10.604065 1.933114
-8.289850 -4.532921 -1.496452
-18.967346 -10.367114 2.654071
-10.234528 -5.591641 -1.431965
-18.841707 -10.289905 3.400260
-13.578016 -7.415277 -1.353529
-19.039766 -10.393755 4.216497
-16.038509 -8.751744 -0.957539
-19.172913 -10.457754 5.042053
-14.342302 -7.819679 -0.285137
-18.638885 -10.158027 5.687808
-5.402895 -2.935977 -1.647642
-6.256077 -3.396773 -1.643492
-19.426918 -10.543571 1.158404
-7.407592 -4.020322 -1.638286
-19.393646 -10.521132 1.930325
-8.336880 -4.520906 -1.502084
-19.020868 -10.310302 2.656508
-10.260965 -5.559661 -1.432940
-18.997362 -10.288982 3.421848
-13.628346 -7.381120 -1.355969
-19.158802 -10.372093 4.234815
-16.174353 -8.752739 -0.963819
-19.113314 -10.338843 5.016859
-18.793192 -10.157205 5.724042
-5.411410 -2.916182 -1.647125
-19.443195 -10.473457 0.385489
-6.261032 -3.371220 -1.641693
-19.426670 -10.455816 1.156206
-7.433682 -4.000954 -1.640957
-19.388147 -10.430712 1.926142
-8.363049 -4.497390 -1.503961
-19.170393 -10.304941 2.672351
-10.292551 -5.530387 -1.434646
-19.153238 -10.287099 3.443436
-13.657538 -7.335388 -1.356318
-19.181049 -10.297729 4.231762
-16.414232 -8.808613 -0.976275
-19.166458 -10.281273 5.021358
-17.485924 -9.375871 -0.346326
-18.964748 -10.164549 5.765453
-5.431780 -2.902738 -1.650230
-19.578409 -10.458291 0.387443
-6.269324 -3.347508 -1.640793
-19.489428 -10.406388 1.157881
-7.447604 -3.974979 -1.640957
-19.422682 -10.362034 1.925968
-8.417042 -4.488622 -1.510844
-19.313107 -10.294916 2.687219
-10.321344 -5.501827 -1.436108
-19.321486 -10.295053 3.467527
-13.704161 -7.298912 -1.358409
-19.241144 -10.243623 4.237105
-16.467800 -8.763459 -0.977636
-19.209047 -10.222234 5.023607
-19.471283 -10.357430 -0.384965
-19.127987 -10.170531 5.804794
-5.437962 -2.882900 -1.649195
-19.736670 -10.458847 0.389887
-6.276947 -3.324876 -1.639893
-19.638552 -10.402470 1.164685
-7.460743 -3.950261 -1.640957
-19.567879 -10.356283 1.936949
-8.477279 -4.484702 -1.518979
-19.401537 -10.259586 2.694775
-10.336021 -5.465716 -1.435621
-19.460304 -10.286309 3.486299
-13.738860 -7.259011 -1.359455
-19.400000 -10.245773 4.264581
-16.616873 -8.772204 -0.984753
-19.341072 -10.210335 5.049252
-19.487835 -10.283470 -0.384616
-19.243626 -10.150306 5.829640
-5.450912 -2.866649 -1.650230
-6.287938 -3.304042 -1.639893
-19.802052 -10.400721 1.172221
-7.465112 -3.920934 -1.639049
-19.681496 -10.333013 1.944793
-8.558572 -4.491446 -1.530868
-19.660467 -10.313226 2.725974
-10.362071 -5.433288 -1.436596
-19.601067 -10.273343 3.505071
-13.785797 -7.225435 -1.361721
-19.548645 -10.241520 4.289768
-16.831654 -8.814342 -0.995744
-19.493996 -10.204219 5.079844
-19.481091 -10.193132 -0.383778
-19.371384 -10.131417 5.857593
-5.457458 -2.845819 -1.649195
-20.094671 -10.474001 0.395541
-6.295976 -3.280272 -1.638993
-19.969322 -10.399808 1.179967
-7.482235 -3.896668 -1.639813
-19.901239 -10.359931 1.962922
-8.633778 -4.492546 -1.541505
-19.828430 -10.313233 2.744254
-10.391541 -5.402581 -1.438058
-19.782290 -10.280464 3.531039
-13.816238 -7.180026 -1.362244
-19.720171 -10.243805 4.319534
-16.913723 -8.782230 -0.998780
-19.660952 -10.204336 5.114038
-19.473955 -10.102962 -0.382941
-19.509527 -10.117102 5.888651
-5.465644 -2.825863 -1.648677
-20.180851 -10.429500 0.396519
-6.324701 -3.267220 -1.643492
-20.133280 -10.396011 1.187503
-7.494047 -3.869623 -1.639431
-20.078918 -10.363503 1.976866
-8.693295 -4.485023 -1.549327
-20.016039 -10.322203 2.765216
-10.413865 -5.368094 -1.438546
-19.976095 -10.292778 3.559197
-13.848302 -7.135404 -1.362942
-19.884964 -10.241431 4.347774
-16.995770 -8.749646 -1.001815
-19.833338 -10.206084 5.149580
-19.469980 -10.014806 -0.382173
-19.744019 -10.151406 5.948697
-5.477194 -2.807648 -1.649195
-20.206457 -10.353519 0.396309
-6.325660 -3.239792 -1.640793
-20.185446 -10.333859 1.188445
-7.517994 -3.848808 -1.641721
-20.123842 -10.297890 1.977738
-8.766933 -4.484336 -1.559652
-20.110275 -10.282091 2.773259
-10.448448 -5.339840 -1.440740
-20.106895 -10.271513 3.576092
-13.894417 -7.097898 -1.365033
-20.053478 -10.239811 4.376777
-17.138283 -8.747469 -1.008409
-20.023338 -10.215612 5.189621
-19.476316 -9.932245 -0.381614
-19.934237 -10.161386 5.995285
-5.486961 -2.788512 -1.649195
-20.242472 -10.282927 0.396309
-6.329982 -3.214161 -1.638993
-20.187557 -10.246161 1.186456
-7.534886 -3.824319 -1.642484
-20.143671 -10.219473 1.976169
-8.851244 -4.488549 -1.571854
-20.140736 -10.209139 2.772528
-10.465253 -5.302441 -1.440496
-20.146151 -10.203048 3.576718
-13.931550 -7.055655 -1.366253
-20.106613 -10.178615 4.380593
-17.368307 -8.788589 -1.020133
-20.069307 -10.150931 5.192320
-19.478745 -9.847960 -0.380986
-20.033379 -10.123979 6.014437
-5.503561 -2.772820 -1.651266
-20.281816 -10.214005 0.396379
-6.344644 -3.193798 -1.639893
-20.210707 -10.169352 1.185724
-7.539420 -3.793584 -1.640576
-20.172104 -10.145510 1.975472
-8.923335 -4.486018 -1.581866
-20.176247 -10.138777 2.772528
-10.487247 -5.267657 -1.440983
-20.172819 -10.128231 3.575154
-13.968558 -7.013238 -1.367474
-20.133249 -10.103971 4.378685
-17.377459 -8.717162 -1.018876
-20.092424 -10.074699 5.189171
-20.072050 -10.055717 6.015472
-5.499381 -2.746686 -1.647125
-20.345974 -10.157431 0.396938
-6.355753 -3.171633 -1.639893
-20.242533 -10.101381 1.185619
-7.557886 -3.769871 -1.641721
-20.182432 -10.062588 1.973032
-8.995514 -4.483040 -1.591877
-20.206182 -10.065630 2.771797
-10.521564 -5.238981 -1.443177
-20.206295 -10.061279 3.575154
-13.996521 -6.966215 -1.367822
-20.164879 -10.031876 4.377922
-17.339821 -8.622656 -1.014899
-20.123978 -10.002772 5.188271
-19.462952 -9.674204 -0.379380
-20.094906 -9.983942 6.012367
-5.512399 -2.729186 -1.648160
-6.369729 -3.152267 -1.640793
-20.347486 -10.065196 1.189701
-7.569241 -3.742594 -1.641339
-20.213861 -9.990315 1.972683
-9.077626 -4.486444 -1.603766
-20.239450 -9.998569 2.771797
-10.558458 -5.213728 -1.445858
-20.232433 -9.986318 3.573590
-14.033259 -6.923486 -1.369042
-20.185709 -9.958875 4.375250
-17.386234 -8.573941 -1.015946
-20.148300 -9.931676 5.186021
-19.453552 -9.584994 -0.378543
-20.124435 -9.911176 6.010814
-5.524886 -2.712595 -1.649195
-6.377194 -3.128297 -1.639893
-20.502649 -10.053022 1.196714
-7.585135 -3.719203 -1.642102
-20.252247 -9.925859 1.973206
-9.157092 -4.486014 -1.615030
-20.267101 -9.924361 2.770822
-10.596205 -5.186443 -1.448539
-14.078821 -6.884958 -1.371134
-20.209772 -9.883174 4.372961
-17.455532 -8.532499 -1.018248
-20.177591 -9.858717 5.184672
-19.458145 -9.502985 -0.377984
-20.155436 -9.839178 6.009778
-5.538266 -2.694017 -1.650230
-6.375808 -3.100053 -1.636744
-7.607544 -3.695667 -1.644010
-20.301037 -9.857656 1.974426
-9.239226 -4.484336 -1.626606
-20.296259 -9.850959 2.770090
-10.616031 -5.150290 -1.448783
-20.450960 -9.917226 3.599870
-14.117111 -6.842727 -1.372529
-20.390736 -9.879231 4.404253
-18.593988 -9.004703 -1.082726
-20.296030 -9.824601 5.205817
-19.455198 -9.417584 -0.377286
-20.186180 -9.767078 6.008743
-5.545896 -2.673830 -1.649713
-6.395905 -3.080892 -1.638993
-7.606247 -3.662275 -1.640957
-20.349686 -9.793644 1.975821
-9.331368 -4.488879 -1.640059
-20.335806 -9.778223 2.770578
-10.683144 -5.134563 -1.455364
-20.578035 -9.890274 3.616140
-14.158869 -6.802034 -1.374272
-18.740543 -8.995058 -1.089425
-20.340744 -9.758753 5.208517
-19.448290 -9.330585 -0.376518
-20.227118 -9.699897 6.010814
-5.546480 -2.650291 -1.647125
-6.406086 -3.059665 -1.638993
-7.613669 -3.633167 -1.639813
-20.372957 -9.717402 1.974775
-9.387211 -4.477470 -1.647255
-20.380665 -9.716713 2.772284
-10.716239 -5.106796 -1.457558
-20.740837 -9.879545 3.638666
-14.184325 -6.753426 -1.374446
-20.936110 -9.968078 4.507290
-18.907333 -8.998086 -1.097380
-20.401150 -9.704640 5.215715
-19.455460 -9.250620 -0.376030
-20.255621 -9.626740 6.009261
-5.558730 -2.633538 -1.648160
-6.427296 -3.042287 -1.641693
-7.634548 -3.612097 -1.641721
-20.426683 -9.660010 1.976866
-9.433143 -4.459026 -1.652574
-20.425224 -9.650604 2.773746
-10.739386 -5.071898 -1.458289
-20.775196 -9.807086 3.638666
-14.217453 -6.711454 -1.375492
-20.970774 -9.894940 4.507290
-19.068687 -8.993378 -1.104917
-20.456053 -9.643338 5.221114
-19.556368 -9.215045 -0.377356
-20.287352 -9.555157 6.008743
-5.566140 -2.613297 -1.647642
-6.430820 -3.016524 -1.639893
-7.647110 -3.585425 -1.641721
-20.481928 -9.598794 1.978958
-9.450439 -4.426911 -1.652887
-20.458790 -9.579243 2.773746
-10.789388 -5.049526 -1.462676
-20.784252 -9.722794 3.634286
-14.257034 -6.669386 -1.377061
-20.916267 -9.780095 4.488209
-19.194054 -8.970736 -1.110360
-20.503714 -9.578478 5.224713
-20.608515 -9.623050 -0.397007
-20.341591 -9.494086 6.014955
-5.582235 -2.597110 -1.649713
-6.432474 -2.989951 -1.637644
-7.663141 -3.560363 -1.642484
-20.527956 -9.533119 1.980178
-9.478376 -4.399718 -1.655077
-20.508308 -9.515289 2.775940
-10.797942 -5.007660 -1.461457
-20.746376 -9.616952 3.621771
-14.310957 -6.633823 -1.380024
-21.039345 -9.748291 4.507290
-19.257870 -8.918793 -1.112244
-20.551172 -9.513391 5.228312
-20.654684 -9.556931 -0.397252
-20.386881 -9.428699 6.018579
-5.594775 -2.579227 -1.650748
-6.446412 -2.969109 -1.638543
-7.671955 -3.531951 -1.641721
-20.591877 -9.475564 1.983142
-9.497268 -4.368254 -1.655703
-20.557631 -9.451111 2.778134
-10.824376 -4.974082 -1.462676
-20.844446 -9.574153 3.633034
-14.353945 -6.592973 -1.381941
-21.073246 -9.674790 4.507290
-19.277994 -8.846517 -1.111616
-20.601971 -9.449720 5.232811
-20.724274 -9.501441 -0.397950
-20.426693 -9.360702 6.020649
-5.594958 -2.555669 -1.648160
-6.458509 -2.947398 -1.638993
-7.680665 -3.503520 -1.640957
-20.628454 -9.405279 1.983490
-9.516051 -4.336716 -1.656328
-20.617592 -9.391636 2.781790
-10.854320 -4.942025 -1.464382
-20.960445 -9.538972 3.647427
-14.384125 -6.546128 -1.382639
-21.106886 -9.601176 4.507290
-19.363304 -8.803965 -1.114756
-20.649025 -9.384199 5.236411
-20.784620 -9.441452 -0.398473
-20.471560 -9.294928 6.024272
-5.600325 -2.534530 -1.647125
-6.479413 -2.929653 -1.641693
-7.700004 -3.479922 -1.642484
-20.686581 -9.344698 1.985931
-9.529331 -4.302659 -1.656015
-20.675583 -9.331041 2.785202
-10.889600 -4.912266 -1.466820
-21.026026 -9.480368 3.653058
-14.423233 -6.503252 -1.384207
-21.140272 -9.527440 4.507290
-19.412128 -8.744524 -1.115803
-20.681654 -9.312068 5.236411
-20.855745 -9.386077 -0.399206
-20.525021 -9.232922 6.030484
-5.605611 -2.513386 -1.646089
-6.470037 -2.898254 -1.636744
-21.045164 -9.422781 1.208437
-7.713896 -3.453827 -1.642866
-20.746353 -9.284639 1.988545
-9.544292 -4.269369 -1.656015
-20.731588 -9.269341 2.788371
-10.928428 -4.883945 -1.469744
-20.968809 -9.366632 3.637414
-14.469494 -6.463429 -1.386474
-19.427940 -8.670201 -1.114965
-20.699795 -9.233467 5.232811
-20.913954 -9.324614 -0.399695
-20.588884 -9.175379 6.039801
-5.630241 -2.500860 -1.650748
-6.480114 -2.875653 -1.636744
-21.004902 -9.316865 1.204250
-7.725905 -3.426877 -1.642866
-20.807777 -9.225083 1.991334
-9.560942 -4.236829 -1.656328
-20.798302 -9.212197 2.793002
-10.956300 -4.850590 -1.471207
-20.961634 -9.275798 3.630531
-14.517474 -6.424172 -1.388914
-19.425207 -8.587796 -1.113081
-20.717642 -9.154848 5.229212
-21.019541 -9.283875 -0.401091
-20.659668 -9.120619 6.051189
-6.493680 -2.854584 -1.637644
-20.995241 -9.225008 1.201843
-7.730630 -3.396729 -1.641339
-20.869038 -9.165217 1.994123
-9.568439 -4.200251 -1.655077
-20.864870 -9.154696 2.797633
-10.985891 -4.817896 -1.472913
-20.990271 -9.200980 3.629906
-14.561710 -6.383053 -1.391006
-20.965553 -9.185784 4.449285
-19.487997 -8.534358 -1.114965
-20.754826 -9.084822 5.230562
-21.079302 -9.222469 -0.401615
-20.730320 -9.065475 6.062578
-5.629853 -2.453775 -1.645572
-21.112095 -9.197335 0.401964
-6.516112 -2.837343 -1.640793
-21.018156 -9.147684 1.201320
-7.742440 -3.369725 -1.641339
-20.939270 -9.109004 1.997784
-9.592099 -4.170763 -1.656641
-20.934931 -9.098423 2.802751
-11.033594 -4.792967 -1.477057
-20.942535 -9.093038 3.616140
-14.594868 -6.336945 -1.392052
-20.939859 -9.087533 4.437073
-19.979408 -8.666571 -1.141343
-20.818594 -9.026273 5.238660
-21.171913 -9.175072 -0.402767
-20.786655 -9.003806 6.069825
-5.625969 -2.428748 -1.641948
-21.188139 -9.142592 0.402802
-6.522398 -2.813037 -1.639893
-21.103148 -9.097189 1.204355
-7.752352 -3.341900 -1.640957
-21.002047 -9.049254 2.000747
-9.592087 -4.131004 -1.654138
-21.024906 -9.050410 2.810551
-11.042964 -4.751282 -1.476082
-20.988667 -9.026122 3.618643
-14.633371 -6.293044 -1.393620
-20.946199 -9.003534 4.431730
-20.350861 -8.743420 -1.160812
-20.885788 -8.968925 5.247658
-21.269966 -9.129511 -0.404023
-20.857016 -8.947948 6.081213
-5.646847 -2.414411 -1.645572
-21.256701 -9.084292 0.403500
-6.523217 -2.786427 -1.637644
-21.210085 -9.055623 1.208647
-7.765776 -3.315590 -1.641339
-21.114138 -9.010297 2.008417
-9.606447 -4.097498 -1.654138
-21.098375 -8.994865 2.816157
-11.072266 -4.718153 -1.477788
-21.080017 -8.978352 3.628967
-14.673577 -6.249736 -1.395363
-21.022661 -8.949582 4.441270
-20.522768 -8.732542 -1.168871
-20.977938 -8.921901 5.262955
-21.366116 -9.082583 -0.405245
-20.937910 -8.896242 6.095706
-5.664136 -2.398451 -1.648160
-21.361940 -9.041219 0.404896
-6.529315 -2.762121 -1.636744
-21.294916 -9.004083 1.211682
-7.786345 -3.292283 -1.643247
-21.187668 -8.954383 2.012426
-9.627971 -4.067016 -1.655390
-21.184505 -8.944326 2.823469
-21.171293 -8.930048 3.639292
-14.705566 -6.199779 -1.396235
-21.111664 -8.900551 4.453482
-20.556805 -8.662406 -1.169081
-21.046671 -8.864500 5.272403
-21.475098 -9.040533 -0.406711
-21.029373 -8.848579 6.113306
-5.674670 -2.378422 -1.648677
-21.448698 -8.989785 0.405943
-6.551497 -2.744584 -1.639893
-21.368587 -8.947442 1.214090
-7.783870 -3.257660 -1.640194
-21.269976 -8.897420 2.017133
-21.276035 -8.895598 2.831513
-8.432643 -3.523994 -1.122173
-21.264311 -8.881972 3.649929
-14.745503 -6.156088 -1.397978
-21.211180 -8.851091 4.467602
-20.706392 -8.636203 -1.175780
-21.122187 -8.805301 5.283201
-21.589581 -9.000145 -0.408282
-21.115414 -8.798152 6.129353
-21.610800 -8.964746 0.408386
-6.565113 -2.722044 -1.640793
-21.462418 -8.898805 1.217649
-7.789752 -3.228215 -1.639049
-21.396622 -8.862772 2.026197
-8.390178 -3.473611 -1.438259
-21.392872 -8.852472 2.842724
-8.372127 -3.462715 -1.112423
-21.349943 -8.830345 3.659315
-14.774266 -6.107623 -1.398675
-21.309084 -8.804730 4.481722
-21.020697 -8.681283 -1.191899
-21.224848 -8.761258 5.301197
-21.724377 -8.967455 -0.410236
-21.203144 -8.747964 6.145917
-5.680414 -2.334342 -1.645572
-6.570499 -2.698778 -1.639893
-36.259518 -14.885902 2.054186
-7.808240 -3.203985 -1.640576
-21.521439 -8.826586 2.035086
-8.350477 -3.424781 -1.429498
-21.495583 -8.811600 2.852474
-8.346826 -3.419880 -1.107549
-21.462898 -8.789453 3.673394
-14.808403 -6.061297 -1.399895
-21.403572 -8.760797 4.495460
-20.729574 -8.480695 -1.173791
-21.286251 -8.704102 5.309295
-21.879568 -8.942256 -0.412575
-21.306873 -8.703856 6.167140
-5.695281 -2.318407 -1.647642
-6.578074 -2.675092 -1.639443
-22.676971 -9.221997 1.282964
-7.813364 -3.175858 -1.639431
-21.906845 -8.899902 2.068729
-8.336758 -3.385206 -1.425118
-21.623695 -8.776077 2.865392
-8.310885 -3.371322 -1.101211
-21.991657 -8.920946 3.758808
-8.790701 -3.564174 -0.829897
-21.474054 -8.702252 4.503856
-20.821991 -8.433776 -1.177350
-21.426689 -8.674352 5.336739
-22.046267 -8.925181 -0.415158
-21.425161 -8.669381 6.193022
-5.697964 -2.296344 -1.646089
-6.577871 -2.649622 -1.637194
-22.601561 -9.099524 1.276893
-7.835330 -3.152960 -1.641721
-22.137415 -8.903671 2.087554
-8.351603 -3.359016 -1.425744
-21.753979 -8.745049 2.878798
-8.318336 -3.342263 -1.100724
-22.216970 -8.922158 3.791972
-8.747619 -3.511203 -0.824668
-20.987015 -8.419712 -1.185096
-21.504175 -8.622833 5.348886
-22.261047 -8.921818 -0.418613
-21.546751 -8.631177 6.219422
-5.712724 -2.280303 -1.648160
-6.597940 -2.630978 -1.639893
-22.622057 -9.016138 1.276265
-7.832977 -3.121873 -1.639049
-22.364868 -8.909104 2.106205
-8.311890 -3.309385 -1.416984
-21.906105 -8.717497 2.894885
-8.333640 -3.314673 -1.101211
-22.464582 -8.930667 3.828891
-8.718482 -3.465983 -0.820833
-22.592827 -8.977077 4.725576
-21.168488 -8.406851 -1.193679
-21.660931 -8.598049 5.380379
-22.578302 -8.957621 -0.423989
-21.698864 -8.604334 6.254621
-5.717056 -2.258926 -1.647125
-22.742996 -8.981643 0.426816
-6.601646 -2.605784 -1.638543
-22.710987 -8.959833 1.279510
-7.834697 -3.090908 -1.637141
-22.577473 -8.902612 2.123288
-8.316039 -3.277453 -1.415732
-22.126638 -8.715913 2.919990
-8.300830 -3.268112 -1.095362
-22.583853 -8.886916 3.843908
-8.704572 -3.425314 -0.818392
-22.558250 -8.872289 4.711837
-21.391016 -8.408905 -1.204564
-21.897583 -8.603620 5.431668
-24.757395 -9.722261 -0.464269
-21.852848 -8.577246 6.290338
-5.723107 -2.238254 -1.646607
-6.619777 -2.586268 -1.640793
-26.686275 -10.420648 1.501414
-7.856409 -3.067827 -1.639431
-22.656670 -8.842581 2.127820
-8.342153 -3.254146 -1.418235
-22.441748 -8.749676 2.957525
-8.304789 -3.236234 -1.094387
-22.634987 -8.815909 3.847350
-8.720189 -3.396353 -0.818741
-22.592743 -8.794923 4.712601
-21.621264 -8.412398 -1.215869
-22.127268 -8.604822 5.481157
-24.765085 -9.625646 -0.463780
-22.033918 -8.559674 6.333820
-5.738091 -2.221052 -1.648677
-6.621494 -2.560335 -1.638993
-26.679640 -10.310872 1.499007
-7.863408 -3.038969 -1.638668
-26.501154 -10.236577 2.485507
-8.298176 -3.203665 -1.408849
-26.368761 -10.174862 3.470352
-8.297514 -3.200079 -1.091949
-26.501282 -10.215372 4.498430
-8.754299 -3.374494 -0.820833
-22.623306 -8.716004 4.712601
-21.792152 -8.391416 -1.223824
-22.328123 -8.593331 5.523448
-15.649560 -6.019845 -0.292677
-22.308897 -8.576986 6.404219
-5.749417 -2.202391 -1.649713
-6.621291 -2.533724 -1.636744
-26.883360 -10.281890 1.508427
-7.881303 -3.014307 -1.640194
-26.709803 -10.210168 2.501718
-8.235497 -3.146478 -1.396334
-26.663742 -10.181896 3.504475
-8.271542 -3.156941 -1.087075
-26.610605 -10.150964 4.510945
-8.747411 -3.336814 -0.819090
-26.392197 -10.062372 5.490338
-26.455521 -10.075942 6.535728
-15.534053 -5.913244 -0.290129
-26.314598 -10.011745 7.544058
-5.757070 -2.182309 -1.649713
-6.631917 -2.511285 -1.637194
-27.165655 -10.281312 1.522244
-7.878923 -2.981915 -1.637523
-27.084442 -10.245165 2.533443
-8.220563 -3.107932 -1.391954
-26.933098 -10.177172 3.535186
-8.275083 -3.125243 -1.086100
-26.878736 -10.145910 4.550366
-8.736636 -3.297816 -0.816998
-26.603500 -10.036705 5.526974
-26.643709 -10.041260 6.573520
-15.417990 -5.807528 -0.287581
-26.548262 -9.994707 7.600998
-5.746564 -2.155414 -1.644536
-27.566170 -10.333996 0.513869
-6.627869 -2.483336 -1.634045
-27.440794 -10.276073 1.535642
-7.881930 -2.951638 -1.635996
-27.351421 -10.237161 2.555058
-8.231360 -3.079220 -1.391954
-27.232491 -10.181812 3.569797
-8.282223 -3.094949 -1.085612
-27.147154 -10.139114 4.589788
-8.688367 -3.244994 -0.811420
-26.958408 -10.063252 5.593375
-26.912319 -10.035339 6.631107
-15.428798 -5.750185 -0.287406
-26.803850 -9.984244 7.664150
-5.761299 -2.138030 -1.646607
-27.587072 -10.232151 0.513589
-27.510210 -10.192713 1.537526
-7.895867 -2.925471 -1.636760
-27.459852 -10.168613 2.561856
-8.238354 -3.049094 -1.391328
-27.418671 -10.142475 3.589540
-8.307871 -3.071529 -1.087562
-27.395470 -10.123023 4.625768
-8.669741 -3.203595 -0.808631
-27.236471 -10.058868 5.643749
-27.144640 -10.014188 6.679697
-15.441273 -5.693526 -0.287267
-27.085060 -9.981469 7.734549
-5.766912 -2.117242 -1.646089
-27.686451 -10.159213 0.514776
-6.657851 -2.441699 -1.637194
-27.519365 -10.087005 1.536061
-7.904188 -2.897217 -1.636378
-27.483955 -10.068586 2.560810
-8.260077 -3.024393 -1.393206
-27.453907 -10.046710 3.589540
-8.281256 -3.028870 -1.082687
-27.432493 -10.028010 4.626081
-8.695841 -3.178784 -0.810025
-27.382057 -10.004164 5.666646
-27.344185 -9.979503 6.720188
-15.446023 -5.634108 -0.286987
-27.323019 -9.960972 7.792524
-5.779716 -2.099077 -1.647642
-6.655342 -2.414458 -1.634494
-27.573183 -9.997690 1.537107
-7.925326 -2.873624 -1.638668
-27.533922 -9.978010 2.562204
-8.318872 -3.013034 -1.401340
-27.488810 -9.950815 3.589540
-8.291779 -2.999945 -1.082687
-27.474764 -9.934878 4.627332
-8.691895 -3.142990 -0.808631
-27.409426 -9.905851 5.665119
-27.356861 -9.876053 6.714789
-15.548360 -5.610020 -0.288523
-27.364891 -9.868156 7.794595
-5.788826 -2.079542 -1.648160
-6.676569 -2.395819 -1.637644
-27.814716 -9.975548 1.548621
-7.926069 -2.842628 -1.636760
-27.572336 -9.883189 2.562553
-8.344216 -2.989306 -1.403843
-27.540199 -9.860816 3.591734
-8.298461 -2.969645 -1.082200
-27.509272 -9.838919 4.627332
-8.699059 -3.111291 -0.808282
-27.469723 -9.819360 5.670462
-27.398506 -9.783125 6.716588
-15.662016 -5.589316 -0.290268
-27.399170 -9.772573 7.794595
-5.786947 -2.056088 -1.645572
-6.690401 -2.374454 -1.638993
-27.926546 -9.905763 1.552913
-7.937795 -2.815598 -1.637141
-27.610420 -9.788214 2.562902
-8.354600 -2.960161 -1.403843
-27.742865 -9.824260 3.613670
-8.312519 -2.941986 -1.082687
-27.755751 -9.817929 4.662999
-8.698596 -3.076919 -0.807236
-27.489025 -9.718176 5.667409
-27.447189 -9.692611 6.720188
-15.662576 -5.527956 -0.289919
-27.425829 -9.674310 7.792524
-5.794089 -2.035876 -1.645572
-27.996931 -9.826328 1.555006
-7.947575 -2.787874 -1.637141
-27.661341 -9.697708 2.564471
-8.342513 -2.923140 -1.400089
-27.810709 -9.739175 3.618057
-8.315243 -2.910329 -1.081712
-27.862734 -9.751936 4.675514
-8.682956 -3.037325 -0.804796
-27.522778 -9.622169 5.667409
-27.521334 -9.610878 6.730085
-15.712914 -5.487194 -0.290513
-27.607323 -9.635509 7.834970
-5.808460 -2.018174 -1.647642
-6.700885 -2.326942 -1.637644
-28.068794 -9.741644 1.557099
-7.960967 -2.761401 -1.637905
-27.719494 -9.609582 2.566736
-8.346560 -2.893521 -1.399150
-27.869112 -9.655995 3.621470
-8.332352 -2.885336 -1.082687
-27.937677 -9.668823 4.682397
-8.674676 -3.000486 -0.803053
-27.576799 -9.538547 5.671988
-27.593576 -9.533560 6.739984
-27.775925 -9.585717 7.873276
-5.816948 -1.999529 -1.648160
-6.712654 -2.304802 -1.638543
-28.134747 -9.654626 1.558879
-7.973794 -2.736261 -1.638668
-27.777594 -9.526656 2.569177
-8.321105 -2.852197 -1.393206
-27.947720 -9.574095 3.627320
-8.334861 -2.853661 -1.081712
-28.001158 -9.581481 4.687403
-8.692118 -2.974283 -0.803750
-27.639648 -9.452391 5.678094
-27.704136 -9.463646 6.758879
-27.849442 -9.502419 7.884664
-5.827549 -1.980457 -1.649195
-6.724349 -2.282609 -1.639443
-28.198536 -9.566625 1.560554
-7.975861 -2.705887 -1.637141
-27.846531 -9.441792 2.572489
-8.353461 -2.830741 -1.396960
-28.022331 -9.490488 3.632682
-8.341010 -2.823276 -1.081225
-28.060629 -9.492541 4.691783
-8.694899 -2.941370 -0.803053
-27.691074 -9.362141 5.681911
-27.803469 -9.389327 6.775076
-27.994059 -9.448248 -0.515719
-27.922710 -9.418739 7.896052
-5.825271 -1.957026 -1.646607
-6.734123 -2.259742 -1.639893
-28.271523 -9.481478 1.562752
-7.979672 -2.676159 -1.635996
-27.898212 -9.350856 2.574232
-8.348308 -2.796545 -1.394457
-28.081644 -9.401443 3.636094
-8.290574 -2.773987 -1.073425
-28.119825 -9.403305 4.696163
-8.682439 -2.903419 -0.800961
-27.768272 -9.280364 5.691070
-27.924799 -9.321836 6.796671
-10.518373 -3.509196 -0.193547
-27.977411 -9.328546 7.902264
-5.826567 -1.934854 -1.645054
-6.745669 -2.237450 -1.640793
-28.336678 -9.393410 1.564531
-7.988966 -2.648286 -1.635996
-27.974182 -9.267826 2.578241
-8.354268 -2.766147 -1.393831
-28.155752 -9.317075 3.641456
-8.290783 -2.741914 -1.072207
-28.204990 -9.322454 4.704924
-8.688737 -2.871845 -0.800613
-27.826599 -9.191993 5.696412
-28.020090 -9.245070 6.811968
-10.560946 -3.482478 -0.194106
-28.035490 -9.239295 7.909510
-5.844299 -1.918117 -1.648160
-6.740476 -2.209641 -1.637644
-28.342724 -9.285732 1.563066
-8.005625 -2.622828 -1.637523
-28.070740 -9.191207 2.584168
-8.350730 -2.732667 -1.391641
-28.225840 -9.231077 3.646331
-8.260680 -2.700008 -1.067088
-28.271160 -9.234978 4.710555
-8.698709 -2.841496 -0.800613
-27.899572 -9.108207 5.704807
-28.107773 -9.165321 6.825465
-10.542616 -3.435678 -0.193547
-28.115328 -9.156937 7.922969
-5.852796 -1.898302 -1.648677
-6.755565 -2.188499 -1.639443
-28.314157 -9.167061 1.559716
-8.024069 -2.597892 -1.639431
-28.163311 -9.112793 2.589746
-8.369616 -2.706538 -1.393206
-28.288111 -9.142268 3.650231
-28.299467 -9.135022 4.709929
-8.727535 -2.817234 -0.802356
-27.976036 -9.025236 5.713966
-28.180401 -9.080299 6.835363
-10.554544 -3.398859 -0.193547
-28.180223 -9.069386 7.932286
-5.857547 -1.877270 -1.648160
-6.755738 -2.162529 -1.637644
-28.334570 -9.064518 1.559088
-8.016259 -2.564483 -1.635996
-28.272758 -9.039305 2.596892
-8.388420 -2.680314 -1.394770
-28.255554 -9.022935 3.641944
-28.286011 -9.021782 4.702421
-8.706945 -2.777067 -0.799567
-28.044781 -8.939450 5.721599
-28.193356 -8.975970 6.830863
-10.532045 -3.351082 -0.192919
-28.241169 -8.980330 7.940569
-5.860380 -1.855645 -1.647125
-28.593878 -9.048547 0.523502
-6.770678 -2.141284 -1.639443
-28.455545 -8.993846 1.564008
-8.017674 -2.534119 -1.634470
-28.374432 -8.962763 2.603342
-8.393958 -2.649827 -1.394144
-28.296345 -8.927236 3.643162
-8.375589 -2.640814 -1.078300
-28.260811 -8.905180 4.693035
-8.716586 -2.746657 -0.799567
-28.131994 -8.859192 5.733047
-28.183619 -8.864637 6.820966
-10.543679 -3.314295 -0.192919
-28.172815 -8.850434 7.912616
-5.866822 -1.835179 -1.647125
-28.720720 -8.978513 0.525248
-6.785551 -2.119962 -1.641243
-28.587811 -8.926011 1.569556
-8.037716 -2.509627 -1.636760
-28.483528 -8.887996 2.610489
-8.386184 -2.615218 -1.391328
-28.412617 -8.854987 3.654131
-8.407499 -2.618645 -1.081225
-28.363394 -8.828786 4.704924
-8.726120 -2.716214 -0.799567
-28.215237 -8.777267 5.743732
-28.210669 -8.765047 6.820066
-10.589558 -3.288146 -0.193547
-28.166636 -8.740587 7.902264
-5.869501 -1.813547 -1.646089
-6.781737 -2.092816 -1.638543
-28.737125 -8.862659 1.576045
-8.042675 -2.480397 -1.635996
-28.628618 -8.823724 2.620947
-8.406589 -2.589419 -1.393206
-28.519243 -8.779115 3.663880
-8.401410 -2.584611 -1.079275
-28.499775 -8.762233 4.722444
-8.716503 -2.679882 -0.797824
-28.332031 -8.705248 5.761287
-28.319340 -8.690532 6.838962
-10.555089 -3.237090 -0.192709
-28.263472 -8.662594 7.920898
-5.883187 -1.795303 -1.648160
-6.785273 -2.067993 -1.637644
-28.890165 -8.799538 1.582744
-28.727859 -8.744631 2.627223
-8.419357 -2.561207 -1.393831
-28.671270 -8.716464 3.679480
-8.410379 -2.555271 -1.079275
-28.636038 -8.694835 4.739965
-8.741056 -2.654070 -0.799218
-28.448664 -8.632519 5.778841
-28.450212 -8.622146 6.863257
-10.566324 -3.200226 -0.192709
-28.389688 -8.592978 7.947816
-5.885717 -1.773642 -1.647125
-6.803647 -2.047665 -1.640343
-29.880838 -8.987431 1.635289
-8.037234 -2.417405 -1.631417
-28.964279 -8.706240 2.646048
-8.439597 -2.535212 -1.395709
-28.868830 -8.666563 3.700929
-8.405939 -2.521902 -1.077569
-28.749470 -8.619785 4.753731
-8.765536 -2.628119 -0.800613
-28.674210 -8.591773 5.818530
-28.614555 -8.563008 6.895649
-10.588925 -3.166763 -0.192919
-28.534266 -8.528131 7.979909
-5.886318 -1.751433 -1.645572
-6.812621 -2.024460 -1.640793
-29.929623 -8.893979 1.636336
-8.055035 -2.392129 -1.633325
-29.143480 -8.649290 2.659645
-8.448396 -2.505738 -1.395709
-29.724916 -8.810570 3.806711
-8.404740 -2.491195 -1.076350
-29.793097 -8.825116 4.921429
-8.770835 -2.596377 -0.800264
-28.877224 -8.542866 5.853639
-28.732496 -8.494591 6.917245
-10.576355 -3.124832 -0.192500
-28.662439 -8.463001 8.007861
-5.890241 -1.731359 -1.645054
-6.819296 -2.001857 -1.640793
-30.024109 -8.813807 1.639895
-8.085529 -2.372036 -1.637905
-19.602865 -5.747136 1.787216
-8.443388 -2.473820 -1.393518
-29.894945 -8.753227 3.824748
-8.409144 -2.462194 -1.075863
-29.844950 -8.732925 4.925183
-8.771748 -2.565040 -0.799567
-29.105145 -8.505431 5.894090
-29.759409 -8.690983 7.157493
-10.598177 -3.093103 -0.192709
-29.673269 -8.654595 8.282209
-5.905226 -1.714509 -1.647642
-6.820283 -1.977604 -1.639443
-34.620354 -10.031940 1.889014
-8.089989 -2.342706 -1.637141
-19.629471 -5.684319 1.787913
-34.572948 -9.998587 4.418983
-8.394803 -2.426211 -1.072938
-29.932182 -8.645144 4.934569
-8.788304 -2.536615 -0.800264
-29.394978 -8.478864 5.946754
-29.808289 -8.592447 7.161992
-10.635812 -3.063839 -0.193198
-29.740431 -8.561645 8.292562
-5.905898 -1.691260 -1.646089
-6.825611 -1.952057 -1.638993
-20.300213 -5.801827 1.106487
-8.113623 -2.317352 -1.640194
-19.663584 -5.616165 1.789133
-8.435759 -2.407766 -1.389451
-34.594090 -9.867446 4.417033
-8.405549 -2.395971 -1.073182
-34.572586 -9.848264 5.693589
-8.797544 -2.504385 -0.800264
-34.539452 -9.825792 6.980175
-29.850826 -8.486341 7.164691
-10.620041 -3.017183 -0.192709
-29.823645 -8.467363 8.307056
-5.915776 -1.670651 -1.647125
-6.836472 -1.928085 -1.639893
-20.337643 -5.735809 1.107429
-8.112214 -2.286353 -1.638286
-34.698288 -9.772866 3.153818
-8.387483 -2.360775 -1.380065
-34.641483 -9.743809 4.418495
-8.415771 -2.367152 -1.073425
-34.606754 -9.727514 5.693589
-8.817740 -2.476895 -0.801310
-34.554638 -9.699860 6.976358
-34.507256 -9.680055 8.274150
-10.618954 -2.976857 -0.192500
-34.488724 -9.661880 9.597011
-5.913840 -1.648949 -1.645054
-6.840950 -1.904881 -1.639443
-18.622974 -5.185616 1.013120
-8.112185 -2.257334 -1.636760
-8.383845 -2.329774 -1.378188
-20.041378 -5.565501 2.553894
-8.431226 -2.341356 -1.074400
-34.661659 -9.619054 5.697344
-8.833586 -2.449771 -0.802007
-34.601749 -9.589413 6.979412
-34.542919 -9.566628 8.275050
-10.640331 -2.944827 -0.192709
-34.524300 -9.548488 9.598046
-5.923001 -1.630354 -1.646089
-19.354090 -5.323741 0.350374
-6.856625 -1.884768 -1.641693
-18.733406 -5.145971 1.018144
-8.129091 -2.233020 -1.638668
-19.670418 -5.399677 1.784601
-8.349616 -2.290463 -1.371305
-19.131208 -5.244474 2.435681
-8.447005 -2.314011 -1.075375
-34.714081 -9.503211 5.700473
-8.834395 -2.416817 -0.801310
-34.644722 -9.477724 6.981701
-34.594902 -9.451118 8.279549
-10.650546 -2.907667 -0.192709
-34.576054 -9.433000 9.603222
-5.919614 -1.606106 -1.643501
-20.453314 -5.549380 0.369921
-6.851877 -1.857761 -1.638993
-18.637514 -5.049735 1.011968
-8.133432 -2.202186 -1.637905
-19.730465 -5.338468 1.788262
-8.388464 -2.268096 -1.376311
-19.273956 -5.211345 2.451524
-8.470362 -2.288653 -1.077325
-34.777554 -9.390215 5.705478
-8.854320 -2.389079 -0.802356
-34.686810 -9.352726 6.983228
-34.644363 -9.328310 8.283148
-10.660630 -2.870472 -0.192709
-34.623695 -9.316264 9.607364
-5.913987 -1.582436 -1.640395
-20.056240 -5.362803 0.362382
-6.858640 -1.832637 -1.638993
-18.581705 -4.965055 1.007991
-8.142966 -2.174286 -1.638286
-19.810581 -5.285999 1.793839
-8.400146 -2.239818 -1.376936
-19.327457 -5.149862 2.455911
-8.497877 -2.262698 -1.079762
-34.844482 -9.277910 5.711111
-8.889560 -2.365331 -0.804796
-34.791348 -9.250758 6.997730
-34.706848 -9.215330 8.290346
-34.685883 -9.203275 9.615645
-5.928815 -1.564247 -1.642983
-19.954035 -5.264635 0.360218
-6.860911 -1.808889 -1.638094
-18.790127 -4.950537 1.018353
-8.146709 -2.144849 -1.637523
-19.826986 -5.216313 1.793665
-8.438095 -2.219992 -1.381942
-19.323309 -5.080194 2.453230
-8.520694 -2.238541 -1.081712
-34.903404 -9.163255 5.715490
-8.897762 -2.334284 -0.804796
-35.380131 -9.281802 7.109925
-35.012444 -9.172288 8.356031
-34.740223 -9.088008 9.621858
-5.930230 -1.543604 -1.641948
