# This PCD file was generated using the MATLAB® pcwrite function
# from Computer Vision Toolbox®.
# .PCD v.7 - Point Cloud Data file format
VERSION .7
FIELDS x y z
SIZE 4 4 4
TYPE F F F
COUNT 1 1 1
WIDTH 1645
HEIGHT 1
VIEWPOINT 0 0 0 1 0 0 0
POINTS 1645
DATA ascii
15.042945 23.952637 5.497971
8.708420 13.860920 -0.857891
15.069654 23.976582 6.537977
12.574924 19.999590 -0.412365
15.094428 23.997427 7.596340
3.520457 5.581747 -1.768252
12.908302 20.458424 0.422244
3.786192 5.998439 -1.637644
15.043081 23.823414 1.476607
5.137230 8.135724 -1.870310
15.065884 23.850304 2.468076
7.138799 11.296843 -2.116559
15.087946 23.866777 3.466939
9.775283 15.456999 -2.245565
15.132239 23.918329 4.482787
8.763617 13.851954 -1.434061
15.138008 23.918232 5.502168
15.176205 23.960049 6.547875
12.670343 19.996117 -0.413203
15.200863 23.980482 7.607727
3.541994 5.572684 -1.769287
13.013968 20.467243 0.423360
3.807110 5.985186 -1.637644
15.142240 23.796032 1.478177
5.166655 8.119398 -1.870692
15.161878 23.817741 2.470168
7.169703 11.258524 -2.114056
15.185036 23.835724 3.470108
9.859047 15.469657 -2.252389
15.236859 23.898684 4.489044
8.829043 13.848164 -1.436849
15.246749 23.904966 5.511327
8.831834 13.841880 -0.860508
15.268120 23.920076 6.551474
12.707784 19.901201 -0.412156
15.307364 23.963087 7.619115
3.558295 5.555408 -1.767734
13.128491 20.489037 0.424757
3.844806 5.998109 -1.644842
15.240289 23.766581 1.479642
5.188601 8.091401 -1.868402
15.271827 23.806593 2.474526
7.204694 11.226776 -2.112804
15.289578 23.815994 3.474983
9.954826 15.500287 -2.261895
15.330873 23.861967 4.492173
8.913950 13.874251 -1.442776
15.351325 23.884634 5.518960
13.379021 20.808004 -1.296466
15.364181 23.886299 6.556873
12.766350 19.839909 -0.411807
15.403461 23.929008 7.625327
3.576619 5.541329 -1.767217
13.269360 20.550598 0.426991
3.876292 6.001021 -1.649341
15.344844 23.746784 1.481736
5.207226 8.058398 -1.864967
15.366737 23.771540 2.476443
7.235256 11.188291 -2.110301
15.387720 23.785809 3.478395
10.031526 15.500438 -2.267014
15.435538 23.841475 4.498430
9.924931 15.329882 -1.597739
15.450607 23.855621 5.524684
13.443975 20.749439 -1.295734
15.471841 23.870140 6.567221
12.874689 19.855629 -0.413064
15.560492 23.988539 7.661561
3.594886 5.527192 -1.766699
3.905723 6.000519 -1.652940
15.449444 23.726543 1.483829
5.238539 8.045107 -1.866112
15.463754 23.739460 2.478709
7.257012 11.136483 -2.105295
15.495593 23.770193 3.484001
10.141954 15.551794 -2.279688
15.549973 23.835423 4.507503
9.001884 13.798332 -1.441382
13.547982 20.750887 -1.298769
15.579583 23.853508 6.577569
12.916579 19.768713 -0.412191
3.617336 5.519456 -1.768252
13.837906 21.106323 0.440534
3.929850 5.991738 -1.654290
15.546410 23.694183 1.485190
5.263357 8.021848 -1.864967
7.287167 11.097877 -2.102792
15.622062 23.782328 3.493751
10.255042 15.605882 -2.292850
8.940554 13.600337 -1.423951
13.676313 20.788567 -1.304107
15.699184 23.854322 6.592865
13.039385 19.805349 -0.413901
3.639775 5.511631 -1.769805
13.644748 20.654123 0.432087
3.960412 5.992615 -1.658339
5.288080 7.998513 -1.863822
15.876395 24.004841 2.517929
7.317144 11.059191 -2.100289
15.724711 23.757444 3.498138
10.386166 15.685852 -2.309912
10.171843 15.356328 -1.611510
13.629611 20.560915 -1.292803
15.799582 23.825367 6.600064
13.132763 19.796368 -0.414669
3.660061 5.500501 -1.770322
13.723415 20.616350 0.432296
3.994266 5.998219 -1.663738
5.310524 7.971836 -1.861914
7.349126 11.023721 -2.098412
15.843884 23.756914 3.506181
11.196631 16.782301 -2.477116
10.245290 15.350559 -1.614647
16.041639 24.026171 5.615509
13.437284 20.117928 -1.267891
15.915127 23.818682 6.613561
13.252900 19.826885 -0.416275
16.074305 24.038740 7.748525
3.673742 5.477423 -1.767217
13.618387 20.296907 0.426642
4.022742 5.993247 -1.666437
5.329859 7.937649 -1.858480
16.065538 23.917078 2.520718
7.378466 10.980314 -2.095284
15.945256 23.720095 3.509350
11.492908 17.090376 -2.528789
16.103695 23.937738 4.569451
10.324842 15.347618 -1.618308
16.144943 23.990013 5.620852
13.518734 20.080141 -1.268624
16.043692 23.821606 6.630657
13.588060 20.167900 -0.424477
3.697165 5.470969 -1.769287
13.742916 20.328762 0.428317
4.052370 5.992083 -1.670037
16.098051 23.794615 1.505601
5.356432 7.917370 -1.858098
16.135532 23.841049 2.518626
7.401242 10.931592 -2.090903
16.047989 23.693878 3.513737
11.574766 17.083015 -2.533664
10.398470 15.341173 -1.621445
14.165037 20.882402 -1.322425
16.144262 23.791256 6.637856
13.677466 20.148474 -0.425071
3.715154 5.456431 -1.768769
14.610804 21.450804 0.453030
4.076552 5.982733 -1.671386
16.273584 23.883051 1.514603
5.384038 7.898623 -1.858098
16.382532 24.024914 2.544076
7.424883 10.884479 -2.086836
16.150747 23.667229 3.518125
11.664551 17.086771 -2.540245
10.485663 15.354144 -1.626675
13.802848 20.196333 -1.282022
16.255789 23.776592 6.649553
13.489136 19.729937 -0.417182
3.741824 5.454584 -1.772393
14.163765 20.647001 0.437043
4.111808 5.991675 -1.677685
5.407125 7.873312 -1.856572
16.380556 23.842773 2.530828
7.453109 10.848397 -2.084646
16.253872 23.649534 3.523487
11.747005 17.085629 -2.545851
10.569692 15.361762 -1.631381
14.251354 20.704893 -1.317296
16.338974 23.728971 6.651352
13.505749 19.606974 -0.415577
16.462097 23.889902 7.773889
3.757696 5.438966 -1.771358
13.924230 20.146692 0.427479
4.149323 6.001328 -1.684433
5.429857 7.850492 -1.855427
16.545685 23.912846 2.544076
7.469573 10.791452 -2.078701
16.347622 23.608978 3.525924
11.834835 17.085312 -2.551944
16.524469 23.846567 4.595107
10.651219 15.370843 -1.636088
16.509958 23.816769 5.633063
14.324683 20.656656 -1.317401
16.437262 23.694206 6.657651
13.812386 19.903069 -0.422872
16.470455 23.724394 7.738690
3.773350 5.421058 -1.769805
13.859638 19.904316 0.423360
4.174698 5.993207 -1.686233
16.554770 23.757204 1.517534
5.446004 7.815382 -1.851611
16.533354 23.717646 2.529434
7.490241 10.741014 -2.074008
16.445839 23.574558 3.529336
10.766313 15.427408 -2.309912
16.517132 23.659174 4.570077
10.725327 15.362981 -1.639225
16.505318 23.633440 5.603297
14.379550 20.581968 -1.315831
16.506456 23.617527 6.652252
14.392824 20.585659 -0.438439
16.535460 23.641422 7.730408
3.794467 5.411018 -1.770840
13.885388 19.793610 0.422034
4.198953 5.983383 -1.687583
16.571043 23.604458 1.511463
5.469871 7.791502 -1.850466
16.542755 23.555443 2.518278
7.512929 10.693788 -2.069941
16.537169 23.529997 3.531286
10.772144 15.321533 -2.299675
16.567806 23.556131 4.561316
10.808694 15.367819 -1.643757
16.571903 23.553198 5.597955
14.455900 20.538183 -1.316249
16.615728 23.598003 6.663050
13.870401 19.691711 -0.420428
16.642357 23.618303 7.741796
3.811101 5.394585 -1.769805
4.233312 5.987784 -1.692982
16.579512 23.442122 1.504763
5.494761 7.769159 -1.849702
16.597265 23.458513 2.514094
7.531950 10.641702 -2.064935
16.623774 23.478619 3.532261
10.846216 15.312992 -2.304062
16.677347 23.536833 4.568826
10.900289 15.383638 -1.649510
16.689198 23.544872 5.609785
17.822336 25.134163 -1.614774
16.729576 23.584360 6.675647
14.566267 20.527084 -0.439347
16.753778 23.601021 7.755254
3.827670 5.378100 -1.768769
14.125299 19.839542 0.425106
4.257580 5.977732 -1.694331
16.682106 23.413380 1.506648
5.520710 7.748331 -1.849321
16.712584 23.447491 2.519150
7.562172 10.605693 -2.063058
16.728691 23.452766 3.537136
10.936497 15.326751 -2.311862
16.793829 23.526712 4.578211
10.984015 15.387661 -1.654042
16.800955 23.528009 5.619707
14.756820 20.657785 -1.330485
16.840120 23.565462 6.686895
14.258720 19.945784 -0.427968
16.878771 23.602104 7.774924
3.855424 5.377267 -1.772911
14.042949 19.578876 0.420568
4.293191 5.983416 -1.700180
16.788185 23.389082 1.508846
5.540853 7.719445 -1.847031
16.817564 23.421383 2.522636
7.592235 10.569603 -2.061181
16.846357 23.444206 3.544692
12.271410 17.071199 -2.581437
16.908146 23.512848 4.586972
11.066745 15.389664 -1.658399
16.919661 23.520224 5.631918
14.749515 20.495909 -1.323367
16.959856 23.558722 6.701742
14.349287 19.925100 -0.428596
17.003962 23.602608 7.794595
3.869647 5.357511 -1.770840
14.087789 19.497316 0.419870
4.323182 5.981029 -1.703779
16.903671 23.377268 1.511881
5.559715 7.688918 -1.844360
16.931919 23.407732 2.527517
7.619817 10.530235 -2.058678
16.966509 23.438320 3.552736
11.095624 15.322376 -2.322830
17.027199 23.504881 4.596984
11.150784 15.392893 -1.662932
17.040833 23.515064 5.644894
14.737734 20.329493 -1.315935
17.090033 23.565638 6.720638
14.371788 19.810144 -0.427200
17.122551 23.593147 7.811159
3.886050 5.340847 -1.769805
15.316085 21.042152 0.454286
4.357798 5.984807 -1.709178
17.032215 23.382694 1.516068
5.584211 7.666290 -1.843597
17.055759 23.406456 2.533792
7.649549 10.493993 -2.056801
17.100859 23.451122 3.563704
11.172436 15.315629 -2.327705
17.155727 23.509125 4.609499
11.243210 15.406984 -1.668684
17.166807 23.515688 5.659395
17.220474 23.571922 6.739533
14.016089 19.178633 -0.414634
17.259523 23.608095 7.836006
3.902387 5.324132 -1.768769
15.741815 21.469124 0.464688
4.385576 5.978988 -1.711877
17.151537 23.374630 1.519418
5.610936 7.646752 -1.843597
17.188061 23.415838 2.541287
7.669758 10.444942 -2.052420
17.216692 23.437687 3.570772
12.545897 17.072926 -2.601423
17.279799 23.506397 4.620762
11.332320 15.415806 -1.673913
17.298796 23.523636 5.675805
18.329283 24.915823 -1.621054
17.355778 23.583872 6.760229
14.435049 19.607874 -0.425001
17.399111 23.625475 7.861887
3.931274 5.324466 -1.773428
4.415686 5.976181 -1.715477
17.278143 23.375645 1.523395
5.634094 7.622381 -1.842452
17.324179 23.429394 2.549305
7.679155 10.381577 -2.045224
17.350359 23.447655 3.581496
12.607775 17.032223 -2.601911
17.422871 23.528492 4.637031
11.428743 15.433800 -1.680188
17.434566 23.535671 5.693359
18.325764 24.729740 -1.613099
17.491377 23.595161 6.780924
14.579644 19.660160 -0.427235
17.536728 23.639065 7.886734
3.948682 5.309162 -1.772911
15.908024 21.381165 0.465176
4.452810 5.982615 -1.721775
17.416870 23.392097 1.528419
5.643075 7.579051 -1.836727
17.465370 23.448668 2.558021
17.493774 23.469723 3.594171
12.683768 17.010384 -2.605323
17.559231 23.540361 4.651423
17.587046 23.569092 5.716256
18.333128 24.559978 -1.606191
17.678576 23.674486 6.821416
14.755876 19.753344 -0.430376
17.845789 23.881021 7.988192
3.964875 5.292253 -1.771875
17.481644 23.325716 0.508807
4.487693 5.985747 -1.727174
17.560738 23.414240 1.533862
5.662430 7.549882 -1.834438
17.599731 23.457678 2.565691
7.747887 10.322973 -2.044286
17.651880 23.510107 3.609770
12.733537 16.953306 -2.603373
17.698246 23.554733 4.666440
15.403159 20.500185 -2.243389
17.883904 23.793177 5.785710
15.409578 20.493807 -1.343778
17.892303 23.787060 6.871805
15.168608 20.158701 -0.440359
3.979832 5.273755 -1.770322
4.525003 5.991816 -1.733473
17.708584 23.440443 1.539619
5.688752 7.530069 -1.834438
17.767982 23.510557 2.578241
7.782686 10.294288 -2.043973
17.875141 23.635170 3.638531
12.815381 16.938841 -2.608004
18.316818 24.201607 4.807232
15.461404 20.428812 -2.241471
18.199127 24.037390 5.860507
18.338928 24.213278 -1.591851
18.078793 23.861139 6.911396
15.263047 20.137501 -0.441057
18.425249 24.300806 8.171435
3.999388 5.261368 -1.770840
15.915595 20.930073 0.458963
4.550606 5.982191 -1.735272
17.825369 23.424582 1.542655
5.709056 7.502355 -1.832530
18.248194 23.971540 2.635764
7.811385 10.257634 -2.042096
18.032110 23.670536 3.653643
12.850371 16.862423 -2.603129
18.293406 23.996134 4.779073
15.497596 20.328766 -2.236416
18.428162 24.164173 5.907065
18.332485 24.030016 -1.584000
18.276661 23.948149 6.955037
15.341738 20.095228 -0.441302
18.483000 24.201023 8.159530
4.020079 5.250442 -1.771875
17.968124 23.458889 0.515788
4.585685 5.984831 -1.740671
18.473234 24.100901 1.591432
5.729240 7.474589 -1.830622
18.472387 24.091106 2.655984
7.839932 10.220899 -2.040219
18.213726 23.736584 3.673630
12.868054 16.763929 -2.594842
18.538252 24.142088 4.820998
15.490787 20.173418 -2.225260
18.517189 24.105921 5.908592
18.337147 23.862942 -1.577197
18.484833 24.046446 7.002276
18.325201 23.830153 -0.524724
18.553238 24.117979 8.153317
4.040738 5.239440 -1.772911
18.128084 23.497351 0.518022
4.620837 5.987299 -1.746070
18.464472 23.916132 1.583477
5.100217 6.606063 -1.622258
18.405361 23.830946 2.634369
7.864694 10.179399 -2.037403
18.425144 23.839355 3.699466
12.896142 16.679644 -2.588749
18.583746 24.027224 4.810986
15.617189 20.191715 -2.233279
18.562773 23.991455 5.896380
18.344543 23.700859 -1.570707
18.609230 24.034159 7.017573
18.198874 23.495705 -0.518755
18.731964 24.175238 8.194729
4.060189 5.226828 -1.773428
18.376873 23.648666 0.522769
4.660843 5.995751 -1.753268
18.590763 23.906712 1.587140
5.114811 6.577370 -1.619587
18.558172 23.856188 2.644305
7.891685 10.140973 -2.035213
18.619207 23.917440 3.721646
12.937214 16.612595 -2.585336
18.703917 24.008961 4.820372
15.710682 20.159489 -2.236068
18.793629 24.115438 5.942937
18.367001 23.559494 -1.565578
18.990215 24.350153 7.129149
18.332434 23.498259 -0.520221
19.144289 24.530031 8.337597
4.075748 5.207346 -1.771875
18.644180 23.820587 0.528005
4.698565 6.000925 -1.759567
18.634695 23.791351 1.583791
5.146151 6.567850 -1.621876
18.649166 23.792715 2.644828
7.919053 10.099543 -2.032710
18.722187 23.877291 3.725546
12.964494 16.528290 -2.579243
19.107103 24.350687 4.902344
15.835090 20.173477 -2.243737
19.012846 24.213152 5.984152
18.544519 23.608250 -1.573324
19.291254 24.550064 7.208332
18.444006 23.471855 -0.521059
19.332468 24.593678 8.382114
4.097487 5.197640 -1.773428
18.758600 23.786642 0.528773
4.727768 5.992845 -1.762267
18.776207 23.791883 1.588396
5.165395 6.545224 -1.620732
18.787653 23.797848 2.652672
7.946909 10.062538 -2.030833
19.005234 24.056179 3.764301
12.992987 16.440166 -2.572906
19.377537 24.509834 4.948648
13.758396 17.396179 -1.940436
19.282358 24.380701 6.042158
18.848642 23.823738 -1.592060
19.417946 24.534534 7.223629
18.584522 23.473083 -0.522595
19.475260 24.589285 8.404890
4.122519 5.190150 -1.776016
18.873859 23.761724 0.529681
4.753510 5.982406 -1.764066
18.962286 23.855968 1.597084
5.189352 6.526246 -1.620732
19.106693 24.020405 2.685268
7.976356 10.024071 -2.028955
19.279432 24.228909 3.801836
13.011966 16.346567 -2.565350
19.517124 24.510035 4.962415
13.828963 17.360516 -1.941830
19.545330 24.527884 6.096348
19.219679 24.110582 -1.615925
19.517464 24.475382 7.227228
18.756117 23.520634 -0.525108
19.560968 24.521156 8.404890
4.137597 5.175664 -1.775499
19.127398 23.917646 0.534567
4.792799 5.990959 -1.771265
19.242218 24.044012 1.613936
5.203694 6.502248 -1.618824
19.433584 24.274445 2.720479
8.000401 9.989710 -2.027078
19.523512 24.369335 3.834010
13.031339 16.259958 -2.558525
19.677370 24.543819 4.982439
13.877208 17.309208 -1.940958
19.619829 24.463301 6.095584
19.451557 24.244816 -1.629009
19.595486 24.415457 7.227677
18.990498 23.653225 -0.529471
19.659107 24.477247 8.412137
4.147158 5.150655 -1.771875
4.827130 5.990885 -1.776214
19.517805 24.214609 1.629951
5.221433 6.477930 -1.617297
19.599495 24.307272 2.731810
8.015379 9.937123 -2.022072
19.665808 24.372099 3.845222
13.038147 16.152582 -2.548776
19.718241 24.419659 4.971175
13.943798 17.268415 -1.941830
19.701410 24.390079 6.094440
19.563692 24.210943 -1.631312
19.766329 24.453007 7.259170
19.393581 23.983294 -0.538372
19.824625 24.507599 8.446301
4.166326 5.137651 -1.772393
4.863977 5.993669 -1.782062
19.658852 24.216114 1.634661
5.261336 6.481004 -1.622640
19.720642 24.283566 2.736865
8.035072 9.890683 -2.018318
19.783319 24.343351 3.851559
13.026829 16.023798 -2.535614
19.860701 24.421173 4.985567
18.396275 22.620481 -2.550874
19.798822 24.336384 6.098256
19.707333 24.215317 -1.636232
19.888485 24.429195 7.272668
19.665340 24.146477 -0.543573
19.958853 24.498161 8.467007
4.187901 5.127564 -1.773946
19.832296 24.273512 0.547133
4.882401 5.973637 -1.781162
19.786242 24.199921 1.638220
5.292624 6.473239 -1.625311
19.826738 24.240791 2.739828
8.064543 9.856462 -2.017066
19.841751 24.241901 3.846441
13.022322 15.904500 -2.523914
19.949587 24.356276 4.986506
14.117046 17.235378 -1.949151
19.940872 24.336994 6.115810
19.809473 24.167999 -1.637697
20.019360 24.415373 7.289314
19.847143 24.196749 -0.546260
20.017294 24.395481 8.455619
4.208230 5.115898 -1.774981
4.901988 5.955052 -1.780712
19.866793 24.126076 1.637906
5.321429 6.462302 -1.627219
19.988489 24.265257 2.750461
8.083827 9.809956 -2.013312
20.013382 24.278175 3.863258
13.014602 15.782380 -2.511727
20.091047 24.355066 5.000585
14.184729 17.195221 -1.950197
20.115679 24.376261 6.143287
19.939470 24.154165 -1.641465
20.161539 24.414469 7.310009
19.897104 24.085690 -0.545318
20.333693 24.605415 8.552935
4.226061 5.101178 -1.774981
4.933939 5.951406 -1.784762
20.057980 24.185722 1.646699
5.337687 6.436132 -1.625311
20.116329 24.247465 2.756387
8.115500 9.778636 -2.012686
20.204515 24.336470 3.883733
12.990984 15.642168 -2.496615
20.247900 24.371389 5.018418
18.436075 22.190586 -2.524030
20.289734 24.413097 6.170382
19.912582 23.950794 -1.632359
20.291504 24.397875 7.326206
19.922222 23.945383 -0.543712
20.446629 24.566967 8.564322
4.236417 5.077494 -1.771875
4.959676 5.940133 -1.786561
20.267761 24.265778 1.656957
5.362639 6.420473 -1.626074
20.228958 24.210730 2.760222
8.139443 9.738129 -2.010183
20.291895 24.268835 3.884220
12.974189 15.511454 -2.482966
20.420298 24.405113 5.040006
18.406008 21.997755 -2.509388
20.397516 24.369217 6.177250
19.951193 23.827539 -1.628695
20.484142 24.455385 7.364898
19.933769 23.789856 -0.541758
20.586870 24.560585 8.587098
4.252872 5.061197 -1.771358
4.987907 5.931732 -1.789261
20.298349 24.130684 1.652560
5.392603 6.410728 -1.628364
20.305643 24.130827 2.759176
8.158123 9.691520 -2.006429
20.440422 24.273771 3.896407
12.961747 15.387126 -2.470292
20.529554 24.362377 5.045950
18.415928 21.854141 -2.500324
20.522955 24.345898 6.189462
19.973726 23.685995 -1.623775
20.707607 24.547577 7.414387
19.941896 23.631483 -0.539733
20.749733 24.580103 8.619192
4.274256 5.050746 -1.772911
4.995987 5.899415 -1.784762
20.351456 24.023123 1.650048
5.414943 6.391869 -1.628364
20.428402 24.105396 2.764406
8.179128 9.647919 -2.003300
20.622591 24.317347 3.914931
12.958879 15.275180 -2.459567
20.673275 24.359846 5.060343
18.450851 21.741108 -2.494746
20.656090 24.330988 6.203964
19.950275 23.491293 -1.615192
20.828503 24.516724 7.426984
19.971165 23.499260 -0.538302
21.173267 24.904915 8.758955
4.295620 5.040205 -1.774463
5.016551 5.881938 -1.784762
20.357414 23.860765 1.643768
5.439772 6.375914 -1.629127
21.526461 25.222078 2.901066
8.202497 9.607287 -2.000797
20.779552 24.329739 3.928580
12.960539 15.169484 -2.449818
20.801809 24.338591 5.070980
14.526676 16.996542 -1.956123
20.780441 24.305000 6.215794
19.994501 23.377495 -1.612157
20.901281 24.429068 7.422485
19.916536 23.269892 -0.534637
21.310333 24.889544 8.779660
4.313187 5.025181 -1.774463
14.640756 17.051537 0.392295
5.035784 5.862912 -1.784312
20.341656 23.674435 1.635813
5.472230 6.368801 -1.632180
21.627365 25.161884 2.902809
8.230833 9.572604 -1.999546
20.886354 24.282646 3.932724
12.966805 15.069977 -2.441043
21.287420 24.731440 5.168283
14.575871 16.928091 -1.954380
20.915112 24.290342 6.230678
14.596217 16.945723 -1.172116
21.317169 24.739792 7.539460
19.854023 23.033619 -0.530797
21.452587 24.879387 8.802436
4.325259 5.002030 -1.771875
14.778671 17.091082 0.394389
5.051118 5.839404 -1.782512
20.358831 23.527763 1.630579
5.500677 6.354637 -1.633707
20.303038 23.446739 2.713507
8.255515 9.530429 -1.997043
21.050282 24.301113 3.947592
12.975126 14.973619 -2.432756
21.459011 24.755501 5.188932
18.446314 21.272497 -2.463370
21.059319 24.277285 6.247087
20.061792 23.119175 -1.604202
21.517555 24.788055 7.578151
19.981501 23.018534 -0.532054
21.653294 24.935633 8.849024
4.341424 4.985446 -1.771358
5.073769 5.822319 -1.782962
20.347803 23.341581 1.622833
5.524114 6.336878 -1.634088
20.308815 23.288628 2.703397
8.273151 9.483688 -1.993288
21.444618 24.573784 4.004627
12.986845 14.876610 -2.424713
21.593786 24.727268 5.199570
18.428724 21.102922 -2.451168
21.203344 24.271641 6.264641
20.024092 22.913647 -1.594781
21.573179 24.677582 7.567354
20.028870 22.902998 -0.531077
21.698755 24.803751 8.830388
4.358801 4.970260 -1.771358
5.091489 5.801644 -1.782062
20.350103 23.180353 1.616553
5.544906 6.316080 -1.633707
20.329491 23.148745 2.695378
8.298381 9.445849 -1.991411
21.598415 24.576313 4.017301
13.000681 14.787954 -2.417644
21.719097 24.696243 5.208955
14.826026 16.858305 -1.964142
21.339819 24.256437 6.279906
19.989153 22.713175 -1.585675
21.736446 24.689892 7.594348
20.039976 22.754906 -0.529262
21.757107 24.695972 8.819000
4.378680 4.957911 -1.772393
5.113002 5.785295 -1.782512
20.389832 23.070829 1.613622
5.585124 6.317279 -1.639049
20.428656 23.098530 2.697819
8.320833 9.404988 -1.988908
21.731428 24.554291 4.026076
12.996951 14.680061 -2.407407
21.706591 24.517603 5.186429
18.427654 20.806702 -2.431645
21.484241 24.249399 6.297461
20.023270 22.592445 -1.582116
21.783718 24.570114 7.580850
19.999916 22.558142 -0.526225
21.800430 24.580320 8.803471
4.398529 4.945483 -1.773428
5.134748 5.771221 -1.783412
20.518026 23.053240 1.617391
5.596698 6.286013 -1.635996
20.591324 23.119318 2.708626
8.344091 9.368494 -1.987031
21.804806 24.473202 4.024613
12.990089 14.574636 -2.397170
21.760498 24.406290 5.178920
18.436497 20.670891 -2.423278
21.642939 24.265934 6.320357
20.044897 22.466303 -1.577929
21.914381 24.552990 7.597947
19.965315 22.361414 -0.523258
21.922131 24.544424 8.817966
4.409749 4.925114 -1.771358
5.158762 5.757618 -1.784762
20.694359 23.088558 1.624927
5.614891 6.264497 -1.635233
21.918144 24.445318 2.872479
8.368827 9.330489 -1.985154
21.858288 24.361471 4.018764
12.985200 14.467155 -2.386933
21.875906 24.363993 5.186116
18.433069 20.529581 -2.413865
21.807545 24.279329 6.343637
20.073812 22.341223 -1.574056
22.026001 24.505337 7.606945
19.979078 22.220205 -0.521583
22.018013 24.479235 8.822106
4.419151 4.901083 -1.768252
5.182746 5.743914 -1.786111
20.841745 23.090305 1.630160
5.645935 6.255059 -1.637905
22.080769 24.454447 2.882589
8.380162 9.277762 -1.980148
22.074957 24.430834 4.042894
12.971718 14.351062 -2.375234
22.041643 24.376858 5.205201
15.115851 16.717310 -1.971811
21.948797 24.265661 6.360045
20.068577 22.179211 -1.567567
22.123184 24.441301 7.610994
19.974653 22.059904 -0.519453
22.183720 24.491014 8.854200
4.442727 4.892777 -1.770840
5.192276 5.714253 -1.782512
20.985342 23.094986 1.635394
5.675656 6.244030 -1.640194
22.238384 24.456818 2.892002
8.393886 9.227999 -1.975768
22.229565 24.429979 4.055568
12.973632 14.252842 -2.366459
22.167562 24.353302 5.215839
18.428400 20.238337 -2.394691
22.115332 24.278889 6.383706
20.069202 22.024866 -1.561600
22.277948 24.440252 7.634839
19.993816 21.934422 -0.518057
22.439241 24.608597 8.923563
4.464995 4.882941 -1.772911
5.219090 5.705630 -1.785212
21.117071 23.077581 1.639372
5.710674 6.238661 -1.644010
22.380127 24.440762 2.899323
8.416435 9.191373 -1.973890
22.358725 24.408834 4.064343
12.956454 14.139486 -2.354760
22.369894 24.403921 5.243371
18.431589 20.100475 -2.385976
22.415974 24.445625 6.447055
20.074631 21.884596 -1.556367
22.418144 24.430870 7.655085
19.971533 21.756971 -0.515509
22.535465 24.541498 8.927705
4.483778 4.870951 -1.773946
5.233696 5.681643 -1.783412
21.286833 23.100660 1.646280
5.730000 6.218247 -1.643629
21.337532 23.147572 2.754296
8.448471 9.161937 -1.973890
22.500326 24.391914 4.074580
12.931688 14.013939 -2.341354
22.546062 24.424383 5.264647
18.530584 20.074373 -2.390159
22.562443 24.433573 6.464609
20.066872 21.723433 -1.549877
22.634228 24.494154 7.699625
20.001209 21.637192 -0.514322
22.657713 24.502401 8.942199
4.491559 4.845354 -1.770322
5.258799 5.669053 -1.785212
21.413527 23.075996 1.649839
5.758347 6.205404 -1.645537
21.458862 23.116760 2.759525
8.456207 9.106331 -1.968259
22.598837 24.327774 4.077017
12.829178 13.805849 -2.314055
22.640602 24.355656 5.266837
18.648027 20.060638 -2.396260
22.699728 24.410740 6.479492
20.096321 21.603539 -1.546318
22.677116 24.369337 7.685228
20.008484 21.494064 -0.512577
22.703602 24.380753 8.926669
4.509765 4.831057 -1.770840
5.281215 5.653511 -1.786111
21.575771 23.088659 1.656119
5.782655 6.188133 -1.646300
8.482544 9.070989 -1.967007
22.827374 24.402399 4.102853
12.858307 13.740688 -2.310643
22.718725 24.269270 5.265272
18.779205 20.060879 -2.404104
22.723076 24.265430 6.461938
20.112902 21.470573 -1.541817
22.772699 24.301413 7.688827
19.983561 21.317585 -0.510029
22.841434 24.357718 8.947375
4.526600 4.815287 -1.770840
5.291569 5.625106 -1.782962
5.813636 6.177919 -1.648971
8.497902 9.024068 -1.963253
22.847073 24.253218 4.091154
12.912996 13.702947 -2.311862
22.834463 24.222887 5.272468
18.922913 20.073498 -2.413517
22.815727 24.194527 6.464228
19.990368 21.191032 -1.526745
22.940317 24.309641 7.716721
19.997459 21.183712 -0.508493
22.963455 24.317173 8.961869
4.542054 4.798052 -1.770322
5.307151 5.602358 -1.781612
5.839220 6.161863 -1.650116
8.518475 8.982885 -1.960750
22.945263 24.187716 4.093591
12.942988 13.639064 -2.308693
22.988232 24.216099 5.288424
19.064192 20.082464 -2.422581
22.993324 24.212976 6.490559
20.051842 21.108088 -1.525803
23.022331 24.226606 7.715821
20.035458 21.076101 -0.507586
23.056187 24.245256 8.964974
4.564106 4.787763 -1.772393
5.333401 5.590847 -1.783862
5.864758 6.145704 -1.651261
22.296816 23.356766 2.825066
8.541596 8.944521 -1.958873
22.984312 24.060102 4.085548
12.890400 13.489038 -2.290900
23.072630 24.135702 5.288424
19.197514 20.082039 -2.430599
23.085848 24.141069 6.492848
20.053604 20.962921 -1.520360
23.163353 24.205223 7.734717
20.068806 20.964140 -0.506574
23.244896 24.273464 9.005350
4.578114 4.769015 -1.771358
5.358286 5.577816 -1.785661
22.286285 23.191278 1.685637
5.898416 6.137937 -1.654696
22.256710 23.152391 2.809727
8.564553 8.906106 -1.956995
23.080523 23.992613 4.087742
12.852072 13.355277 -2.275788
23.217024 24.117628 5.302190
19.317245 20.066574 -2.436874
23.164513 24.054699 6.491322
20.067078 20.830935 -1.515859
23.323437 24.202795 7.759912
20.078009 20.827749 -0.504968
24.174322 25.068245 9.331462
4.590706 4.748837 -1.769805
5.377722 5.559079 -1.785661
22.355999 23.101856 1.684799
5.929364 6.127183 -1.657367
22.401144 23.140402 2.817745
8.579097 8.859129 -1.953241
23.249775 24.000294 4.102853
12.854407 13.264711 -2.267989
23.411057 24.149908 5.327220
19.453735 20.067694 -2.445241
23.231943 23.956776 6.486743
20.113253 20.733521 -1.513870
23.418629 24.132423 7.763511
20.040556 20.644178 -0.502210
23.324974 24.019114 8.971187
4.611296 4.736938 -1.771358
5.390297 5.533293 -1.783412
22.511770 23.100925 1.690452
5.957565 6.113481 -1.659275
22.567993 23.150536 2.828552
8.596180 8.814983 -1.950112
23.333405 23.918997 4.102853
12.839622 13.157258 -2.257264
23.489700 24.062382 5.325968
19.584908 20.062389 -2.452911
23.316803 23.876932 6.487124
20.062670 20.537474 -1.504659
23.500008 24.047739 7.762611
20.016048 20.475426 -0.499802
23.449177 23.978996 8.986715
4.627804 4.720811 -1.771358
5.412304 5.517229 -1.784312
22.659422 23.090620 1.695476
5.971995 6.085639 -1.657367
23.357708 23.793888 2.917103
8.632428 8.790567 -1.951364
23.455713 23.877047 4.109678
12.790860 13.016076 -2.240690
23.579071 23.985891 5.327220
19.727434 20.067799 -2.461975
23.411013 23.806599 6.490177
20.148249 20.481550 -1.505706
23.542784 23.923908 7.749114
20.052322 20.369810 -0.498929
23.589674 23.954803 9.008455
4.648328 4.708752 -1.772911
5.434271 5.501075 -1.785212
22.759544 23.031267 1.696941
5.980783 6.052187 -1.653932
23.446220 23.717882 2.917800
8.651950 8.749142 -1.948861
23.575220 23.831713 4.116015
12.758020 12.892335 -2.227041
23.651545 23.892202 5.324717
19.866051 20.068192 -2.470517
23.485693 23.716358 6.487888
20.191504 20.382721 -1.503612
23.620670 23.836040 7.747314
20.159914 20.336609 -0.499837
24.638950 24.846252 9.375979
4.657923 4.685650 -1.770322
5.452067 5.480689 -1.784762
22.915861 23.028145 1.702593
6.001869 6.031277 -1.653932
23.514818 23.621769 2.916057
8.676865 8.713286 -1.947609
23.655447 23.746477 4.115528
12.741296 12.785851 -2.216316
23.729229 23.803898 5.323466
19.996471 20.059393 -2.478012
23.573875 23.639801 6.489414
20.214575 20.264032 -1.500053
23.703737 23.753437 7.747314
20.167200 20.202433 -0.498266
24.739187 24.773760 9.381156
4.671518 4.666631 -1.769287
5.473922 5.464378 -1.785661
23.725609 23.675982 1.756604
6.028446 6.015836 -1.655459
23.588675 23.531096 2.915011
8.682047 8.657840 -1.941978
23.726954 23.652542 4.113578
12.749293 12.704862 -2.209979
23.831762 23.740444 5.327846
20.138355 20.061190 -2.486902
23.642332 23.543520 6.485598
20.239897 20.148251 -1.496704
23.775450 23.659557 7.743715
20.176632 20.071274 -0.496765
23.784443 23.651970 8.987751
4.690521 4.653017 -1.770322
5.486045 5.438377 -1.783412
23.812357 23.597237 1.756918
6.052196 5.997520 -1.656222
23.684809 23.462648 2.916754
8.703796 8.619139 -1.940100
23.813599 23.573769 4.114309
12.745586 12.612809 -2.201692
23.844276 23.587641 5.312202
20.289000 20.070631 -2.496838
23.732754 23.469126 6.487888
20.347031 20.113989 -1.499425
23.771959 23.491491 7.715821
20.321976 20.075201 -0.498615
23.781631 23.484648 8.955657
4.709488 4.639326 -1.771358
5.504994 5.419195 -1.783412
23.890322 23.509768 1.756604
6.078694 5.981865 -1.657749
23.769409 23.382618 2.917103
8.725377 8.580397 -1.938223
23.807980 23.404217 4.099197
12.803692 12.582157 -2.204129
23.819365 23.399063 5.288424
20.434263 20.073692 -2.506076
23.810324 23.382017 6.486743
20.485527 20.110008 -1.504450
23.839903 23.394726 7.711322
20.536100 20.145582 -0.502141
23.866219 23.404202 8.956693
4.728417 4.625559 -1.772393
5.529452 5.405394 -1.785212
23.860826 23.317345 1.748440
6.102347 5.963353 -1.658512
23.850880 23.299509 2.917103
8.752452 8.547125 -1.937598
23.866806 23.298773 4.095298
12.830482 12.520753 -2.201204
23.886765 23.301977 5.285295
20.579800 20.075974 -2.515315
23.881966 23.289162 6.484072
20.634253 20.115061 -1.510206
23.904676 23.295036 7.705923
20.675058 20.140749 -0.503816
23.933924 23.307278 8.951516
4.736220 4.600951 -1.769287
5.551083 5.388775 -1.786111
23.919136 23.211662 1.746765
6.144258 5.962524 -1.664236
23.926352 23.210556 2.916405
8.779394 8.513772 -1.936972
23.942286 23.209797 4.094323
12.857006 12.459310 -2.198279
23.965115 23.215710 5.284670
20.719872 20.071947 -2.523856
23.906694 23.151030 6.468807
20.787580 20.123476 -1.516278
23.969036 23.195194 7.700525
20.814219 20.135197 -0.505491
24.015142 23.223585 8.951516
4.756423 4.588412 -1.770840
5.575470 5.374777 -1.787911
24.004333 23.132177 1.747079
6.196136 5.971010 -1.672632
23.995754 23.115833 2.915011
8.786291 8.461152 -1.931966
24.011723 23.115063 4.092373
12.891841 12.406093 -2.196817
24.037460 23.123703 5.282793
20.868776 20.075474 -2.533443
24.063784 23.140917 6.489414
24.142590 23.200510 7.730218
46.674763 44.837734 -1.129729
24.210323 23.249331 8.993961
4.768223 4.567776 -1.769287
5.589975 5.351237 -1.786561
24.060389 23.024788 1.745300
6.231121 5.962923 -1.676448
24.076292 23.031937 2.915011
8.807209 8.422236 -1.930089
24.129555 23.066788 4.098710
12.909233 12.336333 -2.192430
24.235165 23.151539 5.308448
21.016527 20.076815 -2.542856
24.212561 23.121866 6.507732
24.319302 23.207573 7.760811
22.030800 21.016323 -0.531461
24.355639 23.226013 9.017774
4.789738 4.556428 -1.771358
5.608619 5.331693 -1.786561
24.189842 22.987432 1.748858
6.284632 5.972240 -1.685225
24.243216 23.030081 2.925470
8.822228 8.377842 -1.926960
24.302071 23.069881 4.114309
12.955099 12.293925 -2.192917
24.384615 23.132065 5.323466
21.170313 20.082869 -2.552966
24.310213 23.053423 6.512311
21.605955 20.481791 -1.560240
22.005293 20.845793 -0.529087
25.696201 24.333687 9.482613
4.808424 4.542333 -1.772393
5.625781 5.310744 -1.786111
24.357101 22.985096 1.755139
6.321148 5.965086 -1.689423
24.332140 22.953537 2.926516
8.848548 8.344282 -1.926334
24.460457 23.058432 4.127471
12.940138 12.194182 -2.183168
24.816057 23.377295 5.399806
21.318604 20.082615 -2.562379
24.464865 23.038406 6.532156
21.697666 20.425426 -1.561705
21.763323 20.472893 -0.521548
25.814745 24.275623 9.495035
4.818614 4.520235 -1.770322
5.651394 5.297736 -1.788361
24.550854 23.006462 1.763303
6.366284 5.965807 -1.695910
24.470282 22.922937 2.933488
8.871855 8.307941 -1.925083
24.839331 23.252377 4.177681
12.904359 12.075691 -2.170006
25.012918 23.398478 5.424835
21.465696 20.080210 -2.571617
24.634037 23.036013 6.555816
21.841787 20.417753 -1.566939
24.996691 23.358770 7.898482
21.815653 20.379059 -0.521094
25.885214 24.172174 9.489860
4.835778 4.504703 -1.770840
5.671275 5.279309 -1.788811
24.891275 23.162802 1.781935
6.410067 5.964945 -1.702016
24.637680 22.918795 2.943946
8.883436 8.260787 -1.921328
25.016310 23.254725 4.193769
12.894085 11.981922 -2.161231
25.195738 23.405153 5.446736
21.610092 20.074329 -2.580507
24.812132 23.040720 6.581766
21.861698 20.293821 -1.563275
25.329470 23.504686 7.977664
21.858807 20.276939 -0.520431
25.436819 23.587761 9.295227
4.851471 4.487797 -1.770840
5.681085 5.251542 -1.786111
25.080523 23.176088 1.789681
6.451035 5.961189 -1.707359
24.819977 22.927296 2.956149
8.906415 8.224363 -1.920077
25.184847 23.248055 4.208393
12.924157 11.926074 -2.159281
25.373119 23.405453 5.467385
21.762049 20.074419 -2.590269
25.007875 23.060432 6.612296
21.858974 20.149708 -1.558042
25.385572 23.392349 7.969566
21.883863 20.158508 -0.519349
25.462151 23.446487 9.274523
4.872797 4.476063 -1.772911
5.697944 5.230362 -1.785661
25.264275 23.182928 1.797008
6.496394 5.961202 -1.713846
25.005573 22.937479 2.968699
8.932156 8.190557 -1.919451
25.362417 23.248537 4.224479
12.965712 11.880884 -2.159281
25.486710 23.346104 5.474268
21.893690 20.054859 -2.597590
25.212725 23.087040 6.645114
21.976324 20.116430 -1.561391
25.461315 23.298338 7.967766
22.032288 20.153547 -0.521199
25.475414 23.294884 9.249676
4.884111 4.455120 -1.771358
5.724810 5.218316 -1.788361
25.448393 23.188757 1.804335
6.541835 5.960967 -1.720334
25.179752 22.935926 2.979855
8.954851 8.154005 -1.918200
25.510948 23.221323 4.235691
12.954245 11.787458 -2.150506
25.530056 23.222425 5.466134
21.981255 19.994394 -2.599681
25.423895 23.117754 6.679460
22.140993 20.125578 -1.568090
25.542494 23.209312 7.967766
22.186874 20.153145 -0.523188
25.602333 23.247377 9.266240
4.899632 4.438045 -1.771358
5.737212 5.193069 -1.786561
25.538063 23.107830 1.804963
6.590261 5.963124 -1.727585
25.354221 22.933437 2.991011
8.977402 8.117396 -1.916948
25.565342 23.108181 4.231304
12.962906 11.712893 -2.145144
25.602171 23.125217 5.464256
22.092318 19.954933 -2.604562
25.635572 23.147287 6.713806
22.304522 20.132473 -1.574684
25.736212 23.221830 8.002858
25.266964 22.790453 -0.593940
25.772289 23.238070 9.298333
4.907913 4.414454 -1.768769
5.761101 5.178222 -1.788361
25.624517 23.023878 1.805381
6.634402 5.961075 -1.733691
25.531956 22.932655 3.002515
8.988042 8.070175 -1.913194
25.704945 23.071831 4.241054
12.971210 11.638403 -2.139782
25.806261 23.146507 5.490538
14.102177 12.648719 -1.657354
25.824392 23.154640 6.742046
22.896690 20.522400 -1.611424
25.904194 23.209887 8.029853
19.560917 17.520224 -0.458370
25.948233 23.233023 9.332498
4.923197 4.400301 -1.769287
5.768619 5.152310 -1.785661
25.771208 23.009775 1.810615
6.681962 5.963881 -1.740941
25.710892 22.947859 3.015066
9.001557 8.031379 -1.910691
25.880999 23.083462 4.258115
12.995854 11.587029 -2.137832
25.979120 23.154699 5.511813
14.084537 12.548872 -1.650381
25.994867 23.152435 6.766469
22.979544 20.459635 -1.612471
27.711893 24.673040 8.566136
19.485905 17.343023 -0.455333
27.770369 24.707733 9.959875
4.945071 4.387357 -1.771358
5.786007 5.129838 -1.785212
25.957006 23.005251 1.817733
6.727289 5.960180 -1.747047
26.003614 23.038437 3.039469
9.022063 7.990472 -1.908814
27.716269 24.538559 4.545239
13.008508 11.513004 -2.132957
27.794800 24.590761 5.877869
14.025964 12.404774 -1.638179
27.826908 24.601860 7.219831
25.435385 22.479601 -1.779004
27.907265 24.664228 8.598529
19.511868 17.238392 -0.454461
27.988155 24.718323 10.005426
4.962569 4.370479 -1.771875
5.807695 5.111174 -1.786111
27.774643 24.434982 1.938733
6.773113 5.958704 -1.753535
27.841331 24.485058 3.243762
9.048320 7.954745 -1.908188
27.892527 24.512796 4.559376
13.020787 11.439046 -2.128083
27.991602 24.582582 5.900396
14.021275 12.313663 -1.632601
28.042454 24.618547 7.253413
25.417622 22.306370 -1.772305
28.146891 24.692867 8.644419
19.505774 17.106098 -0.452855
28.749691 25.203941 10.244576
4.976339 4.351859 -1.771358
5.829904 5.094715 -1.787461
19.565905 17.092508 1.361572
6.808652 5.947946 -1.757351
28.043690 24.489937 3.257359
9.071569 7.919211 -1.907249
28.106529 24.527548 4.580338
13.066626 11.398744 -2.129058
14.016126 12.222736 -1.627023
28.246593 24.623737 7.283943
25.350784 22.091534 -1.762257
28.373983 24.717342 8.687610
19.524637 17.002462 -0.451913
4.985667 4.329394 -1.769287
5.849123 5.075612 -1.787911
19.580193 16.984838 1.358432
6.856070 5.947298 -1.764220
28.255457 24.501535 3.272001
9.079751 7.870679 -1.903182
28.336000 24.554079 4.603736
13.082332 11.332264 -2.125158
28.837521 24.971045 6.041812
14.013517 12.134614 -1.621794
28.442225 24.620066 7.312183
25.382441 21.963694 -1.759116
28.563255 24.707397 8.719103
19.682192 17.019217 -0.454181
28.851885 24.939436 10.218694
5.002211 4.313227 -1.769805
19.810381 17.075752 0.456520
5.860901 5.050074 -1.786111
19.607578 16.889019 1.356234
6.906537 5.948956 -1.771852
28.476677 24.519777 3.287689
9.092200 7.826048 -1.900053
28.562979 24.576731 4.626648
13.109759 11.276181 -2.123208
28.852619 24.808403 6.026795
14.007450 12.044053 -1.616216
28.647106 24.623003 7.342712
25.389252 21.815102 -1.754301
28.782379 24.721809 8.759594
19.932648 17.114540 -0.458579
28.856655 24.768135 10.189707
5.015770 4.294482 -1.769287
19.766563 16.918074 0.454147
5.878490 5.029589 -1.786111
19.713554 16.866758 1.359688
6.958593 5.951608 -1.779866
28.674160 24.516029 3.300588
9.104442 7.781434 -1.896924
28.781416 24.590345 4.648098
13.110863 11.201695 -2.117358
28.904680 24.686935 6.020537
14.037275 11.984744 -1.614822
28.882210 24.650314 7.380874
19.743168 16.844395 -1.360107
28.967972 24.714773 8.791087
19.796061 16.883551 -0.454147
29.053303 24.770056 10.230082
5.032926 4.280329 -1.770322
5.895138 5.010066 -1.786111
28.934216 24.590153 1.990023
6.994749 5.942483 -1.784064
28.888948 24.534296 3.315927
9.125681 7.747363 -1.895986
28.953608 24.571842 4.662722
13.114636 11.129901 -2.111996
29.061714 24.654839 6.036181
14.076944 11.938125 -1.614822
29.083591 24.655972 7.411404
19.808065 16.786572 -1.360735
29.168711 24.719360 8.827080
19.951111 16.901833 -0.456415
29.253218 24.773460 10.271493
5.041191 4.258628 -1.768252
5.913208 4.991747 -1.786561
29.032095 24.499300 1.990860
7.048928 5.948375 -1.792842
29.091974 24.541138 3.329872
9.136218 7.704325 -1.892857
29.153324 24.575481 4.681733
13.123051 11.058467 -2.107121
29.274496 24.660152 6.062462
14.106341 11.878643 -1.613427
29.312370 24.683310 7.448802
25.184011 21.199398 -1.725203
29.383045 24.725302 8.865771
19.918177 16.754848 -0.454321
29.401623 24.723410 10.293234
5.056765 4.240124 -1.768252
5.932091 4.972326 -1.787011
29.236839 24.497869 1.999024
7.106801 5.952756 -1.802000
29.300879 24.534124 3.343469
9.146223 7.655566 -1.889103
29.378981 24.590780 4.704157
13.131121 10.987117 -2.102246
29.448277 24.631329 6.080608
14.026972 11.728364 -1.599656
29.432768 24.600899 7.456435
31.143942 26.021927 -2.126934
29.422625 24.574961 8.850474
19.846088 16.576252 -0.451354
29.412111 24.557489 10.266834
5.071535 4.222445 -1.768252
19.948757 16.603003 0.453030
5.942787 4.944318 -1.784762
29.451153 24.502958 2.007817
7.150179 5.946741 -1.807724
29.484383 24.513220 3.354625
9.154658 7.608444 -1.885348
29.471960 24.485477 4.704644
13.146867 10.918626 -2.098346
29.479362 24.482952 6.069345
14.081622 11.690787 -1.601225
29.458035 24.447849 7.441169
29.439224 24.414888 8.829779
19.920759 16.520922 -0.451738
29.453043 24.417675 10.251306
5.095176 4.212103 -1.771358
5.959148 4.924585 -1.784762
29.530338 24.394922 2.007398
7.183004 5.931749 -1.810778
29.523682 24.372091 3.349395
7.987037 6.593378 -1.640372
29.497873 24.342131 4.695870
13.143190 10.842122 -2.092009
29.503693 24.329628 6.056830
29.487431 24.307571 7.428195
25.999586 21.424795 -1.765606
29.468878 24.275009 8.814482
29.469481 24.258244 10.227494
5.106129 4.192732 -1.770322
5.982329 4.908696 -1.786561
29.550451 24.238501 2.003002
7.205670 5.910388 -1.811541
29.542721 24.223515 3.342423
8.037504 6.587996 -1.646004
29.524311 24.191214 4.686608
13.162531 10.781080 -2.089084
29.530365 24.178930 6.044941
14.157787 11.592140 -1.600877
29.508289 24.152275 7.412167
29.493103 24.122637 8.796486
29.521078 24.128325 10.216105
5.114746 4.169999 -1.768252
5.996405 4.885324 -1.785661
29.582233 24.092314 1.999443
7.229303 5.887677 -1.812304
29.568375 24.072449 3.335799
8.055855 6.556161 -1.645065
29.559305 24.047913 4.678808
13.166202 10.707518 -2.083722
29.580862 24.048294 6.038058
14.187342 11.533854 -1.599656
29.571095 24.031782 7.406824
25.233917 20.499743 -1.703849
29.537792 23.987604 8.784788
25.212868 20.468039 -0.566854
29.560125 23.988600 10.200577
5.126266 4.149690 -1.767217
6.017968 4.868037 -1.787011
29.619551 23.951235 1.996303
7.246756 5.859939 -1.811541
29.602636 23.929014 3.330221
8.071011 6.521791 -1.643501
29.612190 23.919628 4.673934
13.191137 10.651518 -2.081772
29.603146 23.895252 6.025543
14.111681 11.386687 -1.586409
29.587582 23.874163 7.390033
15.716719 12.677275 -1.058233
29.597076 23.864773 8.777590
25.168953 20.287031 -0.564271
29.613581 23.861050 10.190224
5.147467 4.135712 -1.769287
6.028843 4.842124 -1.785212
29.665604 23.817678 1.993791
7.265125 5.830880 -1.810778
29.659056 23.795424 3.326735
8.084072 6.483516 -1.641311
29.642849 23.773895 4.665646
13.215851 10.595471 -2.079822
29.670946 23.779442 6.022415
14.168442 11.351065 -1.588326
29.668747 23.760653 7.388506
15.700722 12.569645 -1.054046
29.669127 23.743963 8.773090
29.687643 23.750284 10.187118
5.155830 4.112901 -1.767217
6.045030 4.818776 -1.784762
29.705837 23.671457 1.990651
7.290039 5.809156 -1.811922
29.713894 23.669399 3.323597
8.134471 6.477405 -1.646942
29.704929 23.645315 4.661747
13.223528 10.522244 -2.074948
29.726999 23.645914 6.016157
29.720770 23.632517 7.380874
15.706968 12.484946 -1.051534
29.721321 23.616001 8.764093
26.973270 21.424795 -0.601270
29.738178 23.612490 10.174694
5.179243 4.102074 -1.770322
6.060282 4.796440 -1.784312
29.769497 23.552742 1.989395
7.302575 5.777580 -1.810014
29.783836 23.555637 3.322202
8.186469 6.472253 -1.652887
29.765490 23.524242 4.658334
13.238372 10.458789 -2.071535
29.784538 23.522438 6.011152
14.269227 11.269169 -1.590767
29.796925 23.523752 7.379348
15.772407 12.447361 -1.052999
29.794380 23.504890 8.761394
26.972527 21.271063 -0.599595
29.823462 23.510925 10.175730
5.176826 4.070833 -1.764628
6.076989 4.775255 -1.784312
29.835829 23.436338 1.988348
7.322700 5.752053 -1.810014
29.828268 23.422007 3.318019
8.236982 6.465590 -1.658518
29.838057 23.412836 4.656872
13.268551 10.407619 -2.070560
29.854038 23.408569 6.008649
14.335134 11.240188 -1.593730
29.866499 23.409901 7.376294
29.891590 23.412752 8.765893
26.942705 21.095413 -0.597291
29.996620 23.478127 10.206788
5.194047 4.055119 -1.765664
6.095156 4.755213 -1.784762
29.901688 23.319786 1.987301
7.345826 5.728877 -1.810778
29.890995 23.303036 3.315927
8.259503 6.436795 -1.658518
29.910189 23.301241 4.655409
13.273477 10.336841 -2.065686
29.963631 23.326050 6.014280
14.440316 11.241479 -1.601051
29.938725 23.298292 7.374005
16.174208 12.582213 -1.073934
30.130053 23.430283 8.811783
26.930906 20.934980 -0.595406
30.209583 23.475210 10.251306
5.208172 4.036962 -1.765664
6.105556 4.729133 -1.782962
29.978861 23.220490 1.987301
7.368885 5.705602 -1.811541
29.975304 23.200998 3.316276
8.294419 6.417598 -1.661021
30.098125 23.279272 4.671984
13.290631 10.275877 -2.062761
33.794544 26.128826 6.765792
14.522030 11.223905 -1.605757
30.010550 23.186434 7.371715
30.239416 23.346405 8.819880
26.921045 20.784451 -0.593661
30.296438 23.381994 10.254411
5.217638 4.015224 -1.764111
6.118115 4.706485 -1.782062
30.183235 23.210663 1.995466
7.391868 5.682240 -1.812304
30.046621 23.088947 3.315230
8.320353 6.393670 -1.661960
30.203501 23.201094 4.676371
13.293143 10.207570 -2.057886
33.794659 25.940945 6.747645
14.697061 11.277450 -1.620748
30.093510 23.091558 7.373241
30.319769 23.248365 8.820781
26.918844 20.633169 -0.592021
30.383999 23.280800 10.256481
5.240135 4.004937 -1.767217
6.142252 4.691013 -1.784312
30.272732 23.120148 1.996303
7.404430 5.652928 -1.810778
30.148371 23.008514 3.318019
8.356756 6.375368 -1.664776
30.303242 23.109974 4.679296
13.309752 10.146661 -2.054961
14.781914 11.264881 -1.625977
30.180174 22.991138 7.374768
30.437944 23.170721 8.831578
26.917105 20.490499 -0.590485
30.470266 23.186928 10.259587
5.243309 3.978448 -1.763593
6.157775 4.670617 -1.784312
30.378714 23.033651 1.997978
7.416294 5.621120 -1.808869
30.238033 22.910345 3.319065
8.384151 6.352391 -1.666027
30.395527 23.021347 4.681733
13.324333 10.088092 -2.052036
14.989566 11.340641 -1.644454
30.284428 22.912260 7.381637
30.551929 23.097858 8.842376
26.908691 20.336138 -0.588739
30.557188 23.085073 10.261658
5.251684 3.954554 -1.761522
6.178775 4.649286 -1.785212
30.498857 22.940840 2.000071
7.443124 5.598619 -1.810396
30.328165 22.804159 3.319762
8.397427 6.311845 -1.663837
30.512270 22.925922 4.686121
13.350273 10.027314 -2.050086
15.037407 11.290407 -1.645152
30.391029 22.809940 7.386217
30.624798 22.968689 8.837877
30.623957 22.951363 10.254411
5.273191 3.941983 -1.764111
6.182478 4.618358 -1.781612
30.597963 22.848570 2.001327
7.470487 5.578475 -1.812304
30.439512 22.721998 3.323248
8.427322 6.288403 -1.665402
30.579388 22.809772 4.684170
13.369277 9.968789 -2.047649
30.664118 22.856344 6.057456
15.073529 11.235470 -1.644803
30.508257 22.731863 7.395376
15.665317 11.668059 -1.023691
30.589119 22.775536 8.804585
27.164526 20.218323 -0.591078
30.593845 22.762440 10.217658
5.288470 3.924704 -1.764628
6.203259 4.600230 -1.782962
30.670347 22.744602 2.001118
7.489911 5.552369 -1.812304
30.537857 22.629833 3.325340
8.466683 6.271879 -1.668843
30.642855 22.691099 4.681733
13.375278 9.900798 -2.043262
30.634962 22.676954 6.036807
15.208755 11.253888 -1.655262
30.625286 22.653273 7.404535
15.673826 11.589559 -1.021598
30.662167 22.663977 8.802784
27.334339 20.204208 -0.593312
30.700220 22.683844 10.228011
5.299027 3.903927 -1.763593
6.226326 4.585410 -1.785212
30.694868 22.597155 1.997559
7.499760 5.519206 -1.810014
30.661606 22.556149 3.330221
8.504940 6.256642 -1.672285
30.689150 22.568182 4.677346
13.382443 9.837581 -2.039362
30.745777 22.593267 6.043064
15.328229 11.259709 -1.663977
30.750872 22.588772 7.416746
15.766907 11.577714 -1.025157
30.790575 22.601374 8.818081
27.533672 20.203318 -0.596104
30.844645 22.624521 10.249752
5.304150 3.880628 -1.761005
6.232852 4.556752 -1.782512
30.750990 22.473368 1.996094
7.522779 5.497780 -1.811159
30.784492 22.489611 3.335450
8.549057 6.243232 -1.676665
30.809435 22.491343 4.683683
13.391048 9.772080 -2.035462
30.869122 22.518425 6.051824
15.425398 11.248393 -1.670253
30.899336 22.532181 7.433537
16.191353 11.802608 -1.050069
30.938564 22.544273 8.837877
27.710712 20.184782 -0.598408
30.970287 22.550823 10.265282
5.313646 3.857758 -1.759452
6.250298 4.536110 -1.782962
30.887430 22.408131 1.999862
7.539699 5.467867 -1.810396
30.924788 22.418737 3.341726
8.573486 6.213009 -1.676978
30.952059 22.430246 4.693432
13.405785 9.711306 -2.032537
31.014742 22.459188 6.064965
15.548493 11.255226 -1.679317
31.032606 22.455616 7.445749
16.927118 12.244193 -1.094868
31.081011 22.474094 8.854974
28.208805 20.397257 -0.607623
31.133358 22.503696 10.293234
5.333350 3.843703 -1.761522
6.258975 4.507479 -1.780712
31.037447 22.343760 2.004258
7.566707 5.447248 -1.812304
31.067533 22.357210 3.348698
8.603136 6.188818 -1.678542
31.085629 22.353745 4.701232
13.421944 9.648206 -2.029612
31.170639 22.398394 6.079357
15.675052 11.263677 -1.688730
31.171402 22.390673 7.460251
17.050877 12.243274 -1.100102
31.247910 22.429121 8.880168
28.455593 20.417307 -0.611323
