# This PCD file was generated using the MATLAB® pcwrite function
# from Computer Vision Toolbox®.
# .PCD v.7 - Point Cloud Data file format
VERSION .7
FIELDS x y z
SIZE 4 4 4
TYPE F F F
COUNT 1 1 1
WIDTH 1690
HEIGHT 1
VIEWPOINT 0 0 0 1 0 0 0
POINTS 1690
DATA ascii
-1.622935 23.684179 2.914871
-0.052112 0.760492 -0.093596
-1.621789 23.728178 3.766943
-0.068569 1.005815 -0.088202
-1.614927 23.749617 4.627119
-0.089063 1.313177 -0.068979
-1.611269 23.757080 5.497354
-1.471520 21.752966 -0.380567
-1.606381 23.808102 6.393866
-1.443415 21.847036 0.382173
-1.434051 21.820919 1.146053
-1.430393 21.823633 1.913417
-0.051154 0.782554 -0.124209
-1.544133 23.685469 2.914384
-0.048426 0.744822 -0.091646
-1.537285 23.708069 3.762875
-0.064589 0.996095 -0.087330
-1.534012 23.721537 4.620631
-0.085093 1.319445 -0.069293
-1.523197 23.682825 5.478908
-1.395210 21.751980 -0.380462
-1.517216 23.719095 6.368502
-1.365662 21.827990 0.381754
-1.357495 21.819811 1.145739
-1.353604 21.818548 1.912546
-0.048422 0.782728 -0.124209
-1.456062 23.603537 2.903659
-0.046680 0.758856 -0.093352
-1.447751 23.602877 3.745354
-0.061234 0.998303 -0.087504
-1.445919 23.640524 4.603839
-0.080730 1.323721 -0.069502
-1.435437 23.604357 5.459562
-1.319267 21.756720 -0.380462
-1.428226 23.622046 6.341067
-1.289454 21.832623 0.381754
-1.280974 21.818436 1.145425
-1.276847 21.813198 1.911674
-0.045459 0.778948 -0.123583
-1.368016 23.511370 2.891716
-0.043571 0.751087 -0.092377
-1.360556 23.524960 3.732214
-0.057288 0.990555 -0.086807
-1.356727 23.529787 4.581324
-0.074734 1.300067 -0.068246
-1.347342 23.510000 5.436617
-1.243091 21.757200 -0.380393
-1.340614 23.536238 6.316738
-1.213896 21.848974 0.381963
-1.204360 21.814796 1.145006
-1.201019 21.823488 1.912197
-0.043389 0.790937 -0.125460
-1.280945 23.424824 2.880504
-0.040516 0.743306 -0.091402
-1.273399 23.436859 3.717509
-0.053939 0.992738 -0.086981
-1.270119 23.452044 4.565296
-0.069980 1.296331 -0.068037
-1.260456 23.425047 5.415921
-1.167987 21.777378 -0.380672
-1.253390 23.446247 6.291373
-1.137003 21.841093 0.381754
-1.127683 21.808897 1.144483
-1.124634 21.823568 1.911848
-0.039818 0.775301 -0.122957
-1.193684 23.322100 2.867342
-0.038427 0.753356 -0.092621
-1.186070 23.332655 3.700301
-0.050675 0.996900 -0.087330
-1.183275 23.358297 4.546215
-0.065656 1.300557 -0.068246
-1.173104 23.318367 5.390277
-1.092057 21.783321 -0.380707
-1.166436 23.348221 6.263939
-1.051746 21.816689 1.144692
-1.047869 21.815422 1.910802
-0.037112 0.775436 -0.122957
-1.108301 23.242844 2.857105
-0.036362 0.765382 -0.094083
-1.099661 23.232075 3.683719
-0.047195 0.997071 -0.087330
-1.096836 23.258348 4.525990
-0.061397 1.306763 -0.068560
-1.090419 23.295069 5.383979
-1.099296 23.572790 -0.411912
-1.080081 23.247942 6.235987
-1.066769 23.674372 0.413657
-0.975501 21.818232 1.144588
-0.971185 21.807005 1.909757
-0.034404 0.775560 -0.122957
-1.026291 23.226740 2.854668
-0.033778 0.767488 -0.094327
-1.015449 23.164728 3.672456
-0.042929 0.979315 -0.085761
-1.011280 23.162006 4.506527
-0.057009 1.310960 -0.068769
-1.006572 23.240324 5.370481
-1.020887 23.666386 -0.413482
-0.994606 23.151207 6.209069
-0.990262 23.825798 0.416240
-0.899257 21.819510 1.144483
-0.895461 21.820215 1.910628
-0.031697 0.775676 -0.122957
-0.945051 23.226213 2.854180
-0.031741 0.783469 -0.096277
-0.930676 23.071415 3.657125
-0.039912 0.989413 -0.086633
-0.927513 23.092812 4.492407
-0.051873 1.297182 -0.068037
-0.925281 23.239801 5.369582
-0.940968 23.737740 -0.414669
-0.910592 23.073463 6.187329
-0.904147 23.861240 0.416798
-0.822555 21.808542 1.143750
-0.815262 21.817377 1.910105
-0.028560 0.767891 -0.121706
-0.860939 23.257296 2.857593
-0.028639 0.773656 -0.095058
-0.847013 22.989641 3.643672
-0.036577 0.997517 -0.087330
-0.839067 22.992073 4.472182
-0.046684 1.285388 -0.067409
-0.850100 23.406477 5.407373
-0.826914 22.989626 6.164035
-0.824467 23.848118 0.416519
-0.750087 21.807159 1.143541
-0.743048 21.823944 1.910454
-0.026281 0.775878 -0.122957
-0.781531 23.192566 2.849305
-0.026207 0.777715 -0.095546
-0.767401 22.891634 3.627716
-0.033136 0.993650 -0.086981
-0.760338 22.920168 4.457680
-0.042290 1.281543 -0.067199
-0.770424 23.346840 5.392977
-0.748408 22.922729 6.145400
-0.746497 23.886700 0.417147
-0.673915 21.807650 1.143436
-0.670239 21.812346 1.909234
-0.023949 0.783859 -0.124209
-0.701378 23.087885 2.836144
-0.023133 0.765896 -0.094083
-0.685231 22.819143 3.615827
-0.029489 0.987785 -0.086458
-0.681392 22.824444 4.438599
-0.038039 1.281676 -0.067199
-0.676504 22.928644 5.295798
-0.667155 22.882719 6.134012
-0.662551 23.869171 0.416798
-0.597836 21.811865 1.143541
-0.590185 21.810673 1.908885
-0.020864 0.776043 -0.122957
-0.619175 23.030661 2.828831
-0.020565 0.769941 -0.094571
-0.603115 22.728584 3.601122
-0.026094 0.989874 -0.086633
-0.595219 22.730621 4.419900
-0.033446 1.285800 -0.067409
-0.590352 22.849148 5.276902
-0.585584 22.819250 6.116412
-0.011903 0.490546 -0.131480
-0.575067 23.871439 0.416798
-0.521737 21.815815 1.143645
-0.514042 21.812601 1.908885
-0.018016 0.770186 -0.122019
-0.532461 22.933548 2.816644
-0.017739 0.764055 -0.093839
-0.521993 22.653534 3.588920
-0.022547 0.985975 -0.086284
-0.513971 22.648163 4.403490
-0.029002 1.287906 -0.067513
-0.513519 22.804224 5.266104
-0.032609 1.459414 -0.025481
-0.504315 22.747759 6.096742
-0.010519 0.502171 -0.134586
-0.449014 21.799456 1.142703
-0.441751 21.816179 1.909059
-0.015541 0.774192 -0.122645
-0.454663 22.847858 2.805920
-0.015284 0.768079 -0.094327
-0.445198 22.570215 3.575467
-0.019316 0.988036 -0.086458
-0.437298 22.569262 4.387844
-0.024808 1.291988 -0.067723
-0.433485 22.575891 5.213016
-0.025943 1.363546 -0.023805
-0.425667 22.579334 6.051189
-0.008650 0.490614 -0.131480
-0.372932 21.800890 1.142703
-0.369398 21.817524 1.909059
-0.012974 0.774239 -0.122645
-0.373633 22.531670 2.766922
-0.012603 0.768127 -0.094327
-0.364865 22.476826 3.560449
-0.015996 0.996066 -0.087156
-0.357199 22.488207 4.371816
-0.020235 1.288073 -0.067513
-0.352713 22.452562 5.184222
-0.020905 1.345633 -0.023491
-0.345270 22.478306 6.023755
-0.293074 21.806105 1.142913
-0.289276 21.806776 1.908013
-0.010317 0.788108 -0.124835
-0.289068 22.380049 2.748154
-0.009763 0.766183 -0.094083
-0.281518 22.400978 3.548247
-0.012295 0.992134 -0.086807
-0.273770 22.406914 4.355788
-0.015586 1.294130 -0.067827
-0.269343 22.364067 5.163527
-0.015710 1.323705 -0.023107
-0.261710 22.378973 5.996838
-0.005053 0.490664 -0.131480
-0.216939 21.804995 1.142808
-0.209372 21.809683 1.908188
-0.007224 0.766412 -0.121393
-0.206446 22.317438 2.740354
-0.007069 0.764228 -0.093839
-0.202538 22.314913 3.534481
-0.008885 0.998148 -0.087330
-0.194726 22.313498 4.337470
-0.011154 1.304163 -0.068351
-0.190698 22.296669 5.147780
-0.010939 1.305755 -0.022793
-0.182952 22.302477 5.976132
-0.003507 0.502269 -0.134586
-0.009079 1.333766 0.023282
-0.144690 21.815580 1.143331
-0.137054 21.812250 1.908362
-0.004694 0.768407 -0.121706
-0.131829 22.214779 2.727680
-0.004641 0.782113 -0.096033
-0.128100 22.240400 3.522592
-0.005575 0.998172 -0.087330
-0.120267 22.227640 4.320679
-0.006766 1.292209 -0.067723
-0.116283 22.207539 5.127085
-0.006589 1.301785 -0.022723
-0.108573 22.216030 5.952838
-0.001869 0.510005 -0.136656
-0.004600 1.317791 0.023002
-0.068495 21.803970 1.142703
-0.064749 21.820555 1.909059
-0.002179 0.780271 -0.123583
-0.057942 22.133705 2.717687
-0.001863 0.762273 -0.093596
-0.050258 22.151819 3.508513
-0.002278 1.004162 -0.087853
-0.046411 22.161165 4.307704
-0.002474 1.288230 -0.067513
-0.038584 22.108423 5.104139
-0.002026 1.289802 -0.022514
-0.030837 22.079113 5.916086
-0.000090 0.517736 -0.138727
0.000000 1.313800 0.022932
0.007607 21.792091 1.142075
0.011420 21.810686 1.908188
0.000545 0.780274 -0.123583
0.019226 22.032534 2.705256
0.000804 0.768230 -0.094327
0.026775 21.916788 3.471281
0.001234 1.010141 -0.088376
0.030599 21.915787 4.260002
0.002030 1.292225 -0.067723
0.038241 21.911600 5.058699
0.002461 1.281802 -0.022374
0.045969 21.949652 5.881404
0.001666 0.502279 -0.134586
0.004614 1.321791 0.023072
0.083735 21.805914 1.142808
0.087540 21.808519 1.908013
0.003260 0.778292 -0.123270
0.095265 21.831837 2.680638
0.003558 0.784103 -0.096277
0.103023 21.863230 3.462834
0.004760 1.010130 -0.088376
0.107057 21.905733 4.258094
0.006541 1.292210 -0.067723
0.114732 21.913282 5.059149
0.006990 1.291784 -0.022549
0.122561 21.943560 5.879851
0.003445 0.506133 -0.135621
0.009116 1.305769 0.022793
0.159895 21.813478 1.143227
0.163702 21.812067 1.908362
0.006113 0.796053 -0.126086
0.171488 21.835344 2.681126
0.006247 0.778131 -0.095546
0.179491 21.880512 3.465650
0.008237 1.004131 -0.087853
0.183440 21.897371 4.256567
0.011119 1.300168 -0.068141
0.191263 21.916647 5.060049
0.011427 1.283754 -0.022409
0.199065 21.933340 5.877263
0.005252 0.509982 -0.136656
0.013528 1.291732 0.022549
0.235956 21.804798 1.142808
0.239867 21.813354 1.908536
0.008936 0.799978 -0.126712
0.247577 21.822701 2.679663
0.008987 0.780090 -0.095789
0.255770 21.871853 3.464398
0.012045 1.029995 -0.090119
0.259835 21.892670 4.255804
0.015466 1.284145 -0.067304
0.267879 21.925589 5.062299
0.015883 1.281706 -0.022374
0.275850 21.949898 5.881922
0.007138 0.517687 -0.138727
0.018064 1.293677 0.022583
0.311959 21.795855 1.142389
0.316051 21.816368 1.908885
0.011584 0.790066 -0.125148
0.323816 21.825674 2.680151
0.011739 0.782038 -0.096033
0.332211 21.876751 3.465337
0.016760 1.103657 -0.096569
0.336198 21.887705 4.255041
0.019885 1.280089 -0.067095
0.344173 21.908932 5.058699
0.020230 1.273645 -0.022234
0.352359 21.943007 5.880369
0.009079 0.525385 -0.140798
0.022580 1.293606 0.022583
0.384256 21.796698 1.142494
0.392172 21.813141 1.908711
0.014521 0.799896 -0.126712
0.399959 21.822428 2.679907
0.014138 0.764130 -0.093839
0.405153 21.897255 3.468778
0.022026 1.179289 -0.103192
0.412779 21.896214 4.256949
0.024506 1.287999 -0.067513
0.420055 21.876423 5.051501
0.024876 1.295564 -0.022618
0.425241 21.947514 5.881922
0.010351 0.498310 -0.133551
0.026662 1.283528 0.022409
0.460386 21.797218 1.142599
0.468008 21.797695 1.907491
0.017258 0.803793 -0.127338
0.472361 21.822964 2.680151
0.016846 0.772017 -0.094814
0.481712 21.901632 3.469717
0.022521 1.015869 -0.088899
0.485426 21.896685 4.257330
0.028732 1.285914 -0.067409
0.491102 21.808668 5.036204
0.029080 1.281475 -0.022374
0.502827 21.988382 5.893310
0.012190 0.505998 -0.135621
0.031287 1.289424 0.022514
0.536426 21.793482 1.142494
0.539890 21.780088 1.906096
0.019965 0.799778 -0.126712
0.549488 21.858887 2.684782
0.019691 0.777907 -0.095546
0.558568 21.915613 3.472220
0.025433 0.997863 -0.087330
0.561460 21.879158 4.254278
0.033324 1.289799 -0.067618
0.564636 21.707470 5.013259
0.033658 1.285364 -0.022444
0.582424 22.094641 5.922298
0.014169 0.513677 -0.137692
0.035788 1.289307 0.022514
0.612716 21.799463 1.142913
0.615806 21.774088 1.905747
0.022251 0.781933 -0.123896
0.627827 21.928270 2.693557
0.022406 0.777834 -0.095546
0.636787 21.972767 3.481606
0.028685 0.989802 -0.086633
0.638225 21.890800 4.256949
0.037591 1.281689 -0.067199
0.640469 21.707314 5.013709
0.038263 1.289236 -0.022514
0.661904 22.171642 5.943521
0.015362 0.494315 -0.132515
0.040039 1.281179 0.022374
0.688687 21.793200 1.142703
0.692510 21.793711 1.907665
0.025043 0.783825 -0.124209
0.707879 22.035069 2.706962
0.025057 0.775767 -0.095302
0.715273 22.025692 3.490366
0.033045 1.017575 -0.089073
0.714640 21.888439 4.256949
0.042065 1.281550 -0.067199
0.715655 21.687418 5.009660
0.042896 1.293092 -0.022583
0.739493 22.174990 5.945074
0.017755 0.513566 -0.137692
0.045344 1.305014 0.022793
0.764610 21.786669 1.142494
0.768365 21.785189 1.907142
0.027849 0.785707 -0.124522
0.784938 22.036432 2.707450
0.027410 0.765755 -0.094083
0.792432 22.030960 3.491618
0.035952 0.999533 -0.087504
0.791401 21.895622 4.258857
0.046828 1.289379 -0.067618
0.790994 21.675051 5.007410
0.047190 1.286939 -0.022479
0.816960 22.174204 5.945591
0.019253 0.505779 -0.135621
0.051580 1.348809 0.023561
0.841200 21.797838 1.143227
0.844488 21.784363 1.907316
0.031206 0.801396 -0.127025
0.861850 22.033558 2.707450
0.031018 0.789458 -0.097008
0.870104 22.047796 3.494746
0.038969 0.987457 -0.086458
0.867822 21.892725 4.258857
0.051250 1.287212 -0.067513
0.867044 21.681892 5.009660
0.051682 1.286767 -0.022479
0.894285 22.169287 5.945074
0.020377 0.490267 -0.131480
0.054453 1.304665 0.022793
0.917447 21.798763 1.143436
0.920519 21.781282 1.907316
0.032915 0.775625 -0.122957
0.939090 22.038347 2.708425
0.033264 0.777445 -0.095546
0.947320 22.050545 3.495685
0.042245 0.983333 -0.086110
0.943555 21.873871 4.255804
0.056174 1.297003 -0.068037
0.943311 21.692360 5.012809
0.056522 1.294569 -0.022618
0.971576 22.164101 5.944556
0.021914 0.486333 -0.130445
0.990007 21.801582 1.143750
0.996551 21.777937 1.907316
0.035532 0.773532 -0.122645
1.015916 22.032951 2.708181
0.035703 0.771375 -0.094814
1.021539 22.070961 3.499439
0.045863 0.987160 -0.086458
1.020173 21.876328 4.256949
0.060235 1.286823 -0.067513
1.019214 21.692831 5.013709
0.061284 1.304362 -0.022793
1.045793 22.176195 5.948697
0.024174 0.497831 -0.133551
1.065903 21.794004 1.143541
1.072951 21.782286 1.908013
0.038583 0.783275 -0.124209
1.088981 22.029461 2.708181
0.037572 0.757374 -0.093108
1.098276 22.061342 3.498501
0.049507 0.990974 -0.086807
1.093110 21.880667 4.258475
0.064502 1.286616 -0.067513
1.090661 21.679600 5.011460
1.110449 21.996635 -0.384442
1.122713 22.162764 5.946109
0.026425 0.509324 -0.136656
1.138373 21.794340 1.143750
1.145383 21.782589 1.908362
0.041108 0.779190 -0.123583
1.166716 22.041386 2.710131
0.039900 0.751291 -0.092377
1.170910 22.047716 3.496937
0.052263 0.980857 -0.085936
1.170430 21.894363 4.261910
0.069421 1.294361 -0.067932
1.166525 21.679552 5.012360
1.178977 21.910963 -0.383011
1.188293 22.012308 5.906768
1.219583 22.020895 0.384965
1.214448 21.790234 1.143750
1.221082 21.772490 1.907839
0.044577 0.794828 -0.126086
1.234111 21.936316 2.697700
0.043061 0.763047 -0.093839
1.241719 21.935022 3.479729
0.055009 0.968733 -0.084890
1.242578 21.882523 4.260384
0.072803 1.278171 -0.067095
1.239084 21.687239 5.015059
1.254772 21.894735 -0.382801
1.264907 22.004169 5.905733
1.292217 21.944641 0.383709
1.290852 21.791843 1.144064
1.293862 21.778265 1.908711
0.045824 0.769033 -0.122019
1.308776 21.900169 2.693800
0.045606 0.760910 -0.093596
1.318522 21.934498 3.480354
0.057145 0.950646 -0.083321
1.319186 21.881971 4.261147
0.077626 1.283890 -0.067409
1.314667 21.680838 5.014609
1.325725 21.800404 -0.381230
1.337930 21.937918 5.889169
1.367919 21.803152 1.144902
1.370256 21.779579 1.909234
0.048383 0.766897 -0.121706
1.381209 21.832069 2.686001
0.048890 0.770652 -0.094814
1.391051 21.866680 3.470343
0.062613 0.984243 -0.086284
1.395692 21.879190 4.261528
0.081470 1.273646 -0.066885
1.391696 21.697508 5.019558
1.400537 21.775684 -0.380881
1.418484 21.994804 5.905733
1.442967 21.782299 1.144064
1.446268 21.774664 1.909234
0.052110 0.782491 -0.124209
1.458737 21.846922 2.688438
0.049724 0.742747 -0.091402
1.471875 21.928701 3.480980
0.065685 0.976056 -0.085587
1.472193 21.876144 4.261910
0.085646 1.269368 -0.066676
1.467300 21.690573 5.019108
1.474786 21.744728 -0.380428
1.496296 22.005138 5.909874
1.519117 21.779123 1.144169
1.526758 21.779154 1.910105
0.054147 0.770472 -0.122332
1.538870 21.897142 2.695263
0.051619 0.732668 -0.090183
1.548974 21.931309 3.482231
0.069795 0.985757 -0.086458
1.553331 21.884310 4.264581
0.090582 1.273030 -0.066885
1.546369 21.679220 5.017758
1.555218 21.803276 -0.381545
1.702072 23.803389 6.394383
1.602315 21.924179 0.383709
1.596304 21.789623 1.145006
1.603363 21.781641 1.910802
0.056981 0.772248 -0.122645
1.626443 21.990343 2.707450
0.055184 0.744352 -0.091646
1.635884 22.065639 3.504445
0.071759 0.965639 -0.084715
1.630583 21.890503 4.266871
0.096958 1.298598 -0.068246
1.623349 21.691179 5.021807
1.635949 21.859533 -0.382627
1.784580 23.789597 6.392313
1.681404 22.002489 0.385175
1.673267 21.795866 1.145634
1.678778 21.767963 1.910105
0.059086 0.766147 -0.121706
1.702718 22.028370 2.712812
0.057652 0.744165 -0.091646
1.714127 22.075550 3.506948
0.075593 0.971341 -0.085238
1.701790 21.867359 4.263437
1.695429 21.687616 5.022257
1.718642 21.935425 -0.384058
1.867907 23.787073 6.393348
1.757566 21.988510 0.385035
1.746020 21.796171 1.145948
1.751589 21.770224 1.910802
0.061919 0.767905 -0.122019
1.779287 22.018333 2.712324
0.060890 0.751874 -0.092621
1.788275 22.081558 3.508825
0.079136 0.975057 -0.085587
1.778754 21.869112 4.264963
1.772070 21.693222 5.024957
1.791054 21.925617 -0.383988
1.946142 23.773046 6.391277
1.830468 21.982559 0.385035
1.821588 21.783972 1.145634
1.828567 21.775888 1.911848
0.064134 0.763758 -0.121393
1.853131 22.022202 2.713543
0.062049 0.735843 -0.090671
1.866004 22.083055 3.510077
0.082203 0.970804 -0.085238
1.853093 21.884611 4.269161
1.843002 21.675575 5.022257
1.870130 21.949120 -0.384511
2.031092 23.789206 6.397489
1.909271 21.999945 0.385454
1.898133 21.783451 1.145948
1.901120 21.773674 1.912197
0.066628 0.761562 -0.121080
1.931190 22.029442 2.715249
0.063401 0.721779 -0.088965
1.942563 22.070503 3.509138
0.082452 0.936786 -0.082275
1.929468 21.878010 4.269161
1.920377 21.688419 5.026756
1.945493 21.928516 -0.384267
2.127457 23.932066 6.437865
1.988567 22.021027 0.385943
1.975428 21.790617 1.146681
1.976398 21.758968 1.911500
0.068928 0.757390 -0.120455
2.008802 22.030474 2.716224
0.064115 0.701785 -0.086527
2.020487 22.073423 3.510703
0.084087 0.918636 -0.080706
2.006896 21.882872 4.271451
0.756962 8.237943 -0.433551
1.996068 21.681585 5.026756
2.022756 21.929556 -0.384407
2.210989 23.924492 6.437865
2.064297 22.002008 0.385733
2.051485 21.783587 1.146681
2.053447 21.763838 1.912546
0.070828 0.749278 -0.119203
2.086819 22.035185 2.717687
0.067313 0.709462 -0.087502
2.098840 22.080002 3.512893
0.080843 0.848902 -0.074605
2.085405 21.857782 4.268016
0.782588 8.187396 -0.431039
2.072486 21.682247 5.028556
2.099680 21.926342 -0.384477
2.111460 22.008991 5.924368
2.144941 21.994291 0.385733
2.132475 21.787848 1.147309
2.135162 21.775993 1.914289
0.071642 0.729355 -0.116074
2.166591 22.017511 2.716468
0.068551 0.695382 -0.085796
2.172759 22.001390 3.501629
0.081207 0.820842 -0.072165
2.167649 21.871481 4.272213
0.808248 8.140749 -0.428736
2.153670 21.691959 5.032605
2.180816 21.926456 -0.384616
2.190214 21.981880 5.919192
2.223923 21.970367 0.385454
2.212312 21.779886 1.147309
2.215762 21.775949 1.914986
0.070710 0.693714 -0.110443
2.234970 21.888958 2.701600
0.067059 0.655630 -0.080921
2.243725 21.898954 3.486612
0.084072 0.820554 -0.072165
2.244969 21.873547 4.274122
0.835028 8.121984 -0.427899
2.250934 21.856443 5.072646
2.250696 21.816875 -0.382836
2.265003 21.917978 5.904180
2.288748 21.776003 1.147518
2.292164 21.772051 1.915335
0.068987 0.654173 -0.104185
2.305739 21.827721 2.695019
0.067885 0.641574 -0.079215
2.315568 21.847773 3.479729
2.322143 21.873384 4.275648
0.858307 8.071353 -0.425387
2.329892 21.873644 5.078495
2.320266 21.747242 -0.381754
2.342940 21.923384 5.907804
2.357436 21.771402 0.382243
2.362676 21.784178 1.148356
2.368154 21.763916 1.915335
0.071270 0.653928 -0.104185
2.381267 21.813623 2.694288
0.069796 0.639372 -0.078971
2.391437 21.871395 3.484735
0.089799 0.819947 -0.072165
2.399333 21.872952 4.277174
0.883417 8.040514 -0.423921
2.404326 21.883232 5.082544
2.390408 21.721539 -0.381440
2.415835 21.917416 5.908321
2.429625 21.763466 0.382243
2.436007 21.786150 1.148879
2.444094 21.789600 1.918298
0.072115 0.641910 -0.102308
2.455594 21.823357 2.696481
0.072138 0.641109 -0.079215
2.465727 21.879049 3.487238
2.471418 21.860973 4.276412
0.909179 8.029601 -0.423503
2.477982 21.884821 5.084794
2.465125 21.737337 -0.381859
2.489152 21.915045 5.909874
2.503149 21.767210 0.382452
2.514324 21.797352 1.149926
2.534283 21.970379 -4.298927
2.517705 21.793253 1.919344
0.073789 0.637743 -0.101682
2.527260 21.809179 2.695750
0.075520 0.650713 -0.080434
2.540037 21.852646 3.484421
0.095378 0.819317 -0.072165
2.544802 21.860460 4.277938
0.933024 8.002738 -0.422247
2.555947 21.889585 5.087943
2.396050 20.489237 -0.360078
2.566079 21.910057 5.910910
2.582877 21.790113 0.383011
2.590402 21.788443 1.149926
2.598514 21.791790 1.920041
0.076595 0.641391 -0.102308
2.604555 21.810081 2.696969
0.075905 0.634677 -0.078484
2.618882 21.865223 3.487863
0.098237 0.818979 -0.072165
2.626786 21.866579 4.280991
0.959011 7.971502 -0.420781
2.636155 21.880072 5.087943
2.459907 20.417215 -0.358961
2.644633 21.918228 5.915568
2.514220 20.565729 0.361649
2.669752 21.774837 1.149716
2.675532 21.790499 1.920738
0.079797 0.648962 -0.103560
2.686897 21.820089 2.699406
0.078717 0.638335 -0.078971
2.699251 21.857435 3.488176
2.703335 21.859224 4.281373
0.986829 7.968105 -0.420781
2.721395 21.942289 5.104589
2.523628 20.318762 -0.357390
2.747358 22.088594 5.964226
2.579499 20.505243 0.360741
2.747500 21.779257 1.150449
2.757637 21.798334 1.922307
0.082176 0.648665 -0.103560
2.765797 21.832241 2.702087
0.081694 0.643964 -0.079703
2.802414 22.059525 3.521966
2.817916 22.119877 4.334417
1.015018 7.956511 -0.420362
2.835131 22.193129 5.165326
2.588208 20.260239 -0.356518
2.844307 22.234083 6.006155
2.640292 20.412819 0.359275
2.852788 21.995329 1.162382
2.865828 22.065681 1.946711
0.083817 0.644471 -0.102934
2.880438 22.117722 2.738648
0.083171 0.637770 -0.078971
2.897555 22.188675 3.544179
0.977782 7.487584 -0.660641
2.903986 22.207743 4.353498
1.040877 7.949141 -0.420153
2.923158 22.293737 5.190970
2.655786 20.227289 -0.356099
2.934739 22.321705 6.032555
2.708374 20.379690 0.358856
2.948021 22.123821 1.169709
2.956543 22.158237 1.955775
0.967125 7.238648 -1.156677
2.969214 22.194105 2.749373
0.980486 7.319162 -0.906708
2.987854 22.274363 3.559510
1.009209 7.523619 -0.664127
2.994300 22.292812 4.372198
1.068088 7.941499 -0.419944
3.011608 22.362585 5.209416
2.726649 20.219877 -0.356134
3.027380 22.420448 6.062060
2.781114 20.382002 0.359066
3.032991 22.199015 1.174210
3.048739 22.256350 1.965362
3.060448 22.283905 2.761803
1.002782 7.292096 -0.903783
3.076509 22.371962 3.576718
3.087389 22.393080 4.393950
1.098532 7.957508 -0.420990
3.104064 22.456177 5.233711
2.799431 20.252323 -0.356867
3.114961 22.505966 6.087942
2.834838 20.273645 0.357321
3.124875 22.291145 1.179653
3.139725 22.340277 1.973729
3.148143 22.371922 2.773990
1.024187 7.269074 -0.901346
3.168938 22.462799 3.592987
3.177826 22.497416 4.416465
1.124353 7.949866 -0.420781
3.934830 27.786589 6.479041
2.866183 20.214708 -0.356378
3.222812 22.701527 6.143847
2.903891 20.251751 0.357111
3.218303 22.388834 1.185410
3.228545 22.432289 1.982793
3.254853 22.559233 2.798608
1.052395 7.285101 -0.903783
3.268239 22.596277 3.616140
3.270683 22.585276 4.435928
1.153245 7.953800 -0.421200
4.035700 27.799686 6.485339
2.939313 20.222391 -0.356692
3.319291 22.808664 6.175941
2.978050 20.265230 0.357530
3.312159 22.484163 1.191062
3.336767 22.623903 2.000747
3.351006 22.665560 2.813232
1.076944 7.275493 -0.903052
3.356078 22.645306 3.625839
1.285469 8.673769 -0.767145
3.362761 22.663054 4.453482
1.183349 7.965530 -0.422037
3.405088 22.893341 5.343487
3.009006 20.206076 -0.356588
3.413127 22.892475 6.201822
3.051753 20.274487 0.357879
3.402173 22.575754 1.196505
3.428819 22.698799 2.008417
3.450296 22.787191 2.829806
1.104716 7.287390 -0.905002
3.448628 22.749281 3.644298
1.304978 8.598315 -0.760870
3.460415 22.773460 4.477524
1.212350 7.969249 -0.422456
3.499657 22.977642 5.365983
3.085927 20.261221 -0.357739
3.503578 22.976521 6.227704
3.152426 20.481663 0.361719
3.495873 22.660463 1.201634
3.528132 22.816643 2.019921
0.702439 4.542714 -0.728046
3.571402 23.069883 2.866367
1.127050 7.271917 -0.903539
3.543773 22.838608 3.660567
1.336817 8.605520 -0.761916
3.553401 22.874378 4.499658
1.239996 7.973079 -0.422875
3.623810 23.273996 5.437967
3.168025 20.323433 -0.359031
3.592702 23.021414 6.243233
3.237586 20.557449 0.363254
3.591462 22.752680 1.207181
3.619310 22.903221 2.028637
0.722610 4.567550 -0.732426
3.674274 23.198441 2.883916
1.152115 7.265978 -0.903296
3.639252 22.925598 3.676523
1.353091 8.514222 -0.754246
3.651103 22.974293 4.521792
1.272843 8.000261 -0.424549
3.697055 23.211168 5.426270
3.249974 20.381367 -0.360253
3.684923 23.083132 6.263421
3.689636 22.856340 1.213357
3.726147 23.031412 2.041188
0.727346 4.490772 -0.720537
3.771728 23.287373 2.896591
1.180014 7.277587 -0.905246
3.734454 23.006350 3.691541
3.754193 23.077023 4.544689
1.306008 8.019198 -0.425805
3.788997 23.239775 5.436167
3.331391 20.433056 -0.361370
3.783832 23.182619 6.293962
3.786302 22.945795 1.218800
3.826668 23.140137 2.051995
0.746245 4.507694 -0.723666
3.838886 23.163721 2.882941
1.207653 7.279089 -0.905977
3.837042 23.127638 3.713129
1.408581 8.480983 -0.752154
3.853085 23.174166 4.566441
1.337925 8.038233 -0.427061
3.873946 23.249475 5.441566
3.427022 20.567266 -0.363952
3.882537 23.275978 6.322949
3.886303 23.050604 1.225080
3.911408 23.150211 2.054086
0.757897 4.485717 -0.720537
3.917660 23.162609 2.884404
1.232450 7.278958 -0.906464
3.935911 23.221218 3.730337
1.440841 8.491730 -0.753549
3.946328 23.258043 4.585522
1.369258 8.061317 -0.428527
3.969638 23.346008 5.467210
3.925947 23.064697 -0.408386
3.986472 23.395594 6.359184
3.980795 23.166897 0.410306
3.979983 23.137974 1.230418
3.998653 23.197979 2.059490
0.776910 4.502511 -0.723666
4.011999 23.227039 2.894153
1.257514 7.272655 -0.906220
4.035113 23.336506 3.750986
1.475792 8.526169 -0.757035
4.048936 23.367931 4.609946
1.401487 8.080104 -0.429783
4.068114 23.429928 5.490156
4.013364 23.114597 -0.409503
4.082553 23.488832 6.388172
4.070031 23.224474 0.411563
4.079731 23.232134 1.236175
4.098925 23.293768 2.069252
0.779510 4.429873 -0.712403
4.108980 23.326994 2.908290
1.280933 7.264536 -0.905733
4.135761 23.431219 3.768507
1.509703 8.544509 -0.759126
4.146907 23.470371 4.632843
1.435925 8.118680 -0.432086
4.166168 23.531445 5.517149
4.111816 23.200867 -0.411283
4.186798 23.599979 6.422336
4.168672 23.308550 0.413308
4.182651 23.339640 1.242665
4.197965 23.401634 2.080059
0.794969 4.427124 -0.712403
4.214269 23.445366 2.924865
1.308040 7.269790 -0.906952
4.237140 23.525509 3.786027
1.543764 8.562716 -0.761218
4.250412 23.575544 4.656503
4.268371 23.627987 5.543244
4.213778 23.302471 -0.413343
4.287727 23.687872 6.450288
4.277293 23.443365 0.415961
4.285630 23.442781 1.248945
4.303099 23.491917 2.089472
0.793376 4.327031 -0.696759
4.318621 23.553526 2.940220
1.335202 7.274941 -0.908170
4.342441 23.636860 3.806364
1.576520 8.572951 -0.762613
4.358112 23.675657 4.679400
4.374024 23.715670 5.567539
4.315751 23.399714 -0.415332
4.385826 23.756350 6.473065
4.390277 23.573006 0.418544
4.390501 23.551374 1.255540
4.410677 23.613850 2.101673
0.808477 4.324235 -0.696759
4.424291 23.640949 2.953138
1.363683 7.279755 -0.909389
4.437284 23.687572 3.817002
1.612314 8.598729 -0.765402
4.448340 23.700819 4.687414
4.461829 23.727068 5.573837
4.421062 23.510283 -0.417566
4.470875 23.752285 6.476171
4.477362 23.605471 0.419381
4.487221 23.612429 1.259622
4.499792 23.633539 2.104811
0.818380 4.298244 -0.693005
4.507489 23.651499 2.956307
1.387070 7.271293 -0.908902
4.522912 23.687460 3.819504
1.648305 8.624359 -0.768191
4.532434 23.714863 4.693138
4.541226 23.715969 5.574737
4.517036 23.567373 -0.418858
4.558110 23.759304 6.482382
4.562017 23.601479 0.419591
4.572281 23.610346 1.260355
4.580409 23.630224 2.105857
0.837890 4.318633 -0.696759
4.593043 23.651213 2.958257
1.413203 7.270304 -0.909389
4.607828 23.683165 3.821382
1.689070 8.681430 -0.773769
4.613305 23.689264 4.691230
4.626601 23.713360 5.577887
4.598502 23.547535 -0.418788
4.642877 23.752728 6.484971
4.655960 23.644272 0.420638
4.656608 23.604038 1.260878
4.664791 23.623867 2.106729
0.847599 4.288550 -0.692379
4.679817 23.656454 2.960938
1.440884 7.277010 -0.910852
4.694304 23.686314 3.824510
4.695974 23.673016 4.691230
4.727184 23.786901 5.599032
4.675995 23.507805 -0.418369
4.728396 23.749640 6.488594
4.731394 23.592583 0.420010
4.742902 23.607224 1.261925
4.757052 23.656271 2.111086
0.863344 4.289439 -0.693005
4.776081 23.708084 2.969469
1.467456 7.277774 -0.911583
4.784388 23.706572 3.830455
4.780129 23.664177 4.692757
4.844980 23.942158 5.639523
4.696093 23.185596 -0.412924
4.815114 23.751923 6.493770
4.828074 23.604223 1.262657
4.870515 23.769449 2.122765
0.879059 4.286246 -0.693005
4.879144 23.790445 2.981899
1.493252 7.274551 -0.911826
4.871875 23.712946 3.834209
4.869608 23.659958 4.695428
4.938203 23.950960 5.645822
4.663927 22.620684 -0.403151
4.902686 23.757669 6.499981
4.917006 23.598097 1.263285
4.952649 23.748402 2.122416
0.888366 4.256079 -0.688625
4.968749 23.784061 2.983362
1.518278 7.261258 -0.910852
4.961593 23.708464 3.836399
4.956589 23.663954 4.699626
5.022585 23.937391 5.646721
4.666258 22.219862 -0.396309
4.994890 23.764122 6.506711
5.047716 23.849979 0.425525
5.003072 23.598375 1.264228
4.997435 23.531300 2.104637
0.906423 4.264388 -0.690502
5.058339 23.797640 2.987262
1.544853 7.261739 -0.911583
5.045139 23.694868 3.837025
5.048618 23.670588 4.704587
3.178885 14.891587 -0.798019
5.112735 23.930252 5.649421
4.647285 21.751703 -0.388246
5.079030 23.752209 6.508264
5.126773 23.833111 0.425525
5.088459 23.614845 1.266007
5.072171 23.519381 2.104985
0.911481 4.222900 -0.684244
5.141425 23.800138 2.989699
1.571861 7.270158 -0.913289
5.122857 23.674143 3.836399
5.127108 23.673800 4.708403
3.229458 14.899096 -0.798961
5.192842 23.936926 5.654819
5.144949 23.696201 -0.423256
5.162674 23.757893 6.514476
5.212505 23.826788 0.425734
5.171708 23.600842 1.266216
5.157232 23.515152 2.106205
0.928756 4.231270 -0.686122
5.230430 23.809191 2.993111
1.597657 7.266565 -0.913533
5.210564 23.679264 3.840154
1.871560 8.505253 -0.761916
5.211820 23.665344 4.710311
3.285748 14.907234 -0.800007
5.279731 23.933878 5.658419
5.228490 23.682001 -0.423326
5.246830 23.745382 6.516028
5.295650 23.808445 0.425734
5.259712 23.607988 1.267577
5.244493 23.520342 2.108297
0.936636 4.197155 -0.681116
5.312649 23.786911 2.992624
1.628210 7.284191 -0.916458
5.296622 23.676359 3.842657
1.669830 7.464286 -0.669182
5.296976 23.658503 4.712601
3.345193 14.928805 -0.801787
5.367491 23.934322 5.662918
5.319013 23.698727 -0.423954
5.335618 23.753309 6.523275
5.386658 23.824924 0.426362
5.343835 23.597279 1.267996
5.330962 23.521326 2.110040
0.958273 4.224683 -0.686122
5.405322 23.810808 2.997986
1.653625 7.278464 -0.916458
5.384936 23.682766 3.846724
1.845189 8.115076 -0.728099
5.386503 23.670496 4.718707
3.866070 16.975433 -0.912425
5.427626 23.812838 5.638623
5.406158 23.699511 -0.424303
5.421075 23.745842 6.526381
5.468005 23.798180 0.426223
5.426540 23.598892 1.269042
5.471173 23.754974 2.132701
0.974788 4.229012 -0.687373
5.473217 23.726034 2.989699
1.679090 7.278744 -0.917189
5.464781 23.670549 3.847662
1.857356 8.038702 -0.721824
5.473945 23.672592 4.722904
3.932511 16.992968 -0.914100
5.491630 23.730154 5.623326
5.488324 23.697041 -0.424582
5.504582 23.748436 6.532075
5.554156 23.811077 0.426781
5.509303 23.600220 1.270089
5.536758 23.680441 2.127646
0.979805 4.187288 -0.681116
5.546441 23.684557 2.986774
1.704578 7.278934 -0.917920
5.547748 23.671534 3.850791
1.881271 8.020862 -0.720778
5.557806 23.677244 4.727484
3.992034 16.993446 -0.914833
5.569841 23.709917 5.622876
5.569606 23.690395 -0.424792
5.586409 23.743214 6.535699
5.594420 23.592501 1.270717
5.603300 23.611546 2.123114
0.993686 4.184015 -0.681116
5.620815 23.648655 2.984581
1.731356 7.278732 -0.918651
5.635828 23.675085 3.854546
1.855263 7.793619 -0.700907
5.642657 23.685423 4.732827
4.053927 17.003426 -0.916089
5.657993 23.713079 5.628275
5.657846 23.694145 -0.425210
5.672403 23.736721 6.539322
5.683760 23.601957 1.272287
5.690338 23.611216 2.124857
1.013844 4.203566 -0.684870
5.704733 23.634676 2.985312
1.753951 7.261068 -0.917189
5.725404 23.684067 3.859239
1.853432 7.667026 -0.690099
5.730385 23.686573 4.737025
4.115124 16.996939 -0.916507
5.746705 23.717804 5.634124
5.733929 23.647043 -0.424722
5.757498 23.726164 6.541910
5.767529 23.587793 1.272601
5.778884 23.616367 2.127123
1.022872 4.176976 -0.681116
5.794281 23.643541 2.988968
1.775978 7.241405 -0.915483
5.812286 23.681202 3.862055
1.881136 7.664379 -0.690448
5.817241 23.683582 4.740459
4.174910 16.984409 -0.916612
5.831794 23.707060 5.636374
5.801614 23.566692 -0.423640
5.848135 23.737812 6.550710
5.864601 23.662363 0.425525
5.857055 23.596592 1.274171
5.867044 23.619255 2.129215
1.045070 4.204053 -0.686122
5.879660 23.634729 2.990430
1.803641 7.244793 -0.916701
5.898240 23.674191 3.864245
1.911726 7.673234 -0.691842
5.904632 23.682182 4.744275
4.238520 16.987175 -0.917554
5.919228 23.705467 5.640873
5.884333 23.548235 -0.423675
5.934715 23.732244 6.554852
5.947168 23.641747 0.425525
5.942797 23.589561 1.274904
5.951897 23.608290 2.130086
1.052007 4.169734 -0.681116
5.967950 23.637157 2.993355
1.836702 7.269246 -0.920601
5.985691 23.672607 3.867373
5.994963 23.691879 4.750381
4.301717 16.987762 -0.918391
6.008636 23.711109 5.647171
5.946337 23.448080 -0.422244
6.023692 23.735727 6.561581
6.029664 23.620840 0.425525
6.033014 23.599636 1.276579
0.922073 3.604291 -0.723166
6.043816 23.607550 2.132004
6.054371 23.631565 2.995305
1.864039 7.270482 -0.921576
6.076137 23.682184 3.872379
6.085672 23.684958 4.753434
4.368423 16.989292 -0.919333
6.101334 23.711571 5.652570
6.021179 23.400066 -0.421755
6.108442 23.722038 6.563651
6.124219 23.629555 0.426083
6.122882 23.607430 1.278149
0.927743 3.574446 -0.717823
6.136208 23.624874 2.135490
1.081818 4.162099 -0.681116
6.143938 23.620745 2.996768
1.889904 7.265852 -0.921820
6.162753 23.676123 3.874882
1.936059 7.432647 -0.671971
6.172268 23.678770 4.756487
4.430730 16.985537 -0.919962
6.185337 23.711952 5.657519
5.877052 22.514027 -0.406152
6.200971 23.737955 6.574004
6.200519 23.601379 0.425943
6.202653 23.592794 1.278463
0.936594 3.559958 -0.715534
6.217061 23.614029 2.136362
1.095614 4.158489 -0.681116
6.229313 23.627117 3.000180
1.915505 7.265304 -0.922551
6.247286 23.678474 3.878637
1.961715 7.430038 -0.672319
6.258274 23.686646 4.762211
5.777143 21.850151 -1.184468
6.266432 23.700727 5.659769
5.866777 22.173504 -0.400358
6.285583 23.739672 6.580216
0.923941 3.472425 -0.962807
6.284918 23.603876 0.426362
6.290121 23.590294 1.279510
0.943954 3.537699 -0.711718
6.300978 23.614458 2.138279
6.314298 23.631258 3.003348
1.941881 7.262409 -0.923038
6.332949 23.667976 3.880514
1.993821 7.446241 -0.674411
6.345498 23.681721 4.765646
5.772153 21.526985 -1.168034
6.355165 23.701302 5.665167
5.839972 21.764685 -0.393342
6.376433 23.747437 6.588498
0.928604 3.439175 -0.954525
6.374513 23.592266 0.426572
6.383317 23.592146 1.280870
0.957939 3.538005 -0.712481
6.388524 23.595055 2.138628
6.407096 23.630947 3.006273
1.969005 7.257159 -0.923282
6.424847 23.663666 3.883643
2.022143 7.442729 -0.674760
6.435853 23.671568 4.768317
5.788110 21.274416 -1.155473
6.476286 23.803829 5.695311
5.864542 21.540541 -0.389677
6.466471 23.735092 6.591603
0.932527 3.404073 -0.945725
6.460936 23.568747 0.426572
0.961468 3.504918 -0.839067
6.472506 23.594757 1.282231
0.968206 3.527066 -0.710954
6.490788 23.629118 2.143857
6.517363 23.693436 3.017241
1.295154 4.708446 -0.599597
6.516305 23.673475 3.888961
2.051816 7.449070 -0.675980
6.522101 23.662205 4.770988
5.850639 21.211727 -1.153171
6.594556 23.908827 5.725904
6.500473 23.551649 -0.426467
6.553918 23.729134 6.596262
0.946391 3.410270 -0.948313
0.963693 3.467914 -0.830969
6.556056 23.592409 1.283278
0.982527 3.533293 -0.712862
6.601698 23.724548 2.154490
6.641727 23.836142 3.038203
1.293712 4.642933 -0.591798
6.604330 23.685986 3.894593
2.078647 7.449902 -0.676677
6.604234 23.653681 4.773660
5.865598 20.994080 -1.142389
6.681152 23.913101 5.732203
7.854074 28.092291 -0.509157
6.637782 23.725870 6.601439
0.959786 3.414552 -0.950384
0.972021 3.453443 -0.828270
6.639672 23.589762 1.284325
0.994236 3.530017 -0.712862
6.679249 23.698694 2.154141
6.726649 23.835007 3.040884
1.301275 4.607823 -0.587898
6.687129 23.679163 3.897096
2.106593 7.454472 -0.677723
6.691713 23.663769 4.780148
5.798683 20.492142 -1.116117
6.764589 23.889631 5.732203
7.953733 28.089176 -0.509575
6.726424 23.739042 6.611274
0.974347 3.420471 -0.952972
0.984535 3.453949 -0.829170
6.730725 23.597176 1.285999
1.003859 3.517085 -0.710954
6.784919 23.755693 2.161462
6.814386 23.843105 3.044784
1.308908 4.576763 -0.584485
6.770837 23.659473 3.897722
2.135343 7.456650 -0.678595
6.780413 23.677311 4.787398
6.735901 23.506376 -1.281498
6.852363 23.897043 5.739401
8.055037 28.072775 -0.509785
6.816707 23.741417 6.618521
0.985148 3.415365 -0.952454
0.999829 3.461725 -0.831869
6.817497 23.588888 1.286837
1.016061 3.515623 -0.711336
6.859237 23.717749 2.160068
6.904194 23.842058 3.047709
1.313827 4.534032 -0.579611
6.858329 23.652773 3.900537
2.161911 7.451065 -0.678769
6.869033 23.674240 4.791596
6.820704 23.492306 -1.282022
6.946606 23.910406 5.748399
8.160789 28.071371 -0.510273
6.903862 23.732315 6.622662
0.997660 3.411731 -0.952454
1.012455 3.460084 -0.832319
6.904852 23.582195 1.287779
1.030596 3.517527 -0.712481
6.949479 23.703924 2.161114
6.995205 23.844479 3.051121
1.312871 4.472277 -0.572298
6.950321 23.660904 3.905856
2.194090 7.464499 -0.680686
6.959642 23.662086 4.794267
6.914087 23.492058 -1.283382
7.036403 23.892260 5.750199
8.264384 28.061893 -0.510623
6.992117 23.726604 6.627839
1.010660 3.411932 -0.953489
1.022359 3.447009 -0.830069
7.002600 23.595026 1.289872
1.044544 3.519555 -0.713626
7.044664 23.721540 2.164949
7.087074 23.833902 3.053071
1.337180 4.494072 -0.575711
7.045447 23.663671 3.910549
2.227690 7.477411 -0.682604
7.049477 23.662107 4.799228
7.000619 23.483093 -1.284220
7.127554 23.893700 5.756498
8.377469 28.065907 -0.511251
7.087331 23.728580 6.635603
1.025936 3.417456 -0.956078
1.034946 3.445285 -0.830519
7.089513 23.585739 1.290709
1.058568 3.519463 -0.714389
7.135000 23.707008 2.165994
7.178236 23.835632 3.056484
1.337967 4.439960 -0.569374
7.134284 23.659737 3.913991
2.268743 7.519183 -0.687136
7.141269 23.653027 4.802663
7.101654 23.506989 -1.286941
7.180125 23.751760 5.728604
7.147985 23.645441 -0.431179
7.178502 23.731436 6.643367
1.036701 3.412187 -0.955560
1.049234 3.449109 -0.832319
7.172925 23.579296 1.291651
1.069089 3.512177 -0.713626
7.219377 23.702278 2.167738
7.230131 23.707895 3.043322
1.346503 4.412479 -0.566449
7.219042 23.656734 3.917432
2.329157 7.627857 -0.697769
7.227693 23.655502 4.808005
6.453139 21.107285 -1.156729
7.248583 23.694277 5.720505
7.234542 23.648380 -0.431668
7.265635 23.735212 6.651132
1.045766 3.399315 -0.952972
1.060092 3.443748 -0.831869
7.263427 23.580835 1.293117
1.081344 3.508424 -0.713626
7.293844 23.650282 2.165297
7.296423 23.643950 3.038203
1.345902 4.358675 -0.560112
7.309734 23.657814 3.921813
2.394023 7.743406 -0.709099
7.315382 23.661413 4.814111
6.520742 21.078135 -1.156311
7.337484 23.703621 5.728604
7.305220 23.584776 -0.430970
7.354168 23.728155 6.656308
1.057032 3.395829 -0.952972
7.356528 23.619097 0.431807
1.074427 3.447469 -0.833669
7.355797 23.587751 1.294896
1.092971 3.504819 -0.713626
7.364522 23.601236 2.163031
7.382459 23.629709 3.039665
7.401713 23.662319 3.926818
6.785222 21.678162 -1.987325
7.407321 23.665710 4.820217
6.519062 20.815092 -1.143122
7.429511 23.707613 5.735802
7.382123 23.541960 -0.430656
7.444464 23.726303 6.663038
1.072958 3.402986 -0.956078
7.434124 23.578014 0.431528
1.085281 3.439981 -0.832769
7.448907 23.596218 1.296780
1.107585 3.506405 -0.714771
7.459989 23.602581 2.165646
7.466089 23.607582 3.040153
7.489637 23.653282 3.929634
6.763950 21.348553 -1.959261
7.499344 23.655245 4.823652
6.680465 21.059488 -1.157881
7.520476 23.693228 5.738951
7.471498 23.538923 -0.431074
7.530169 23.709377 6.665626
1.084241 3.397380 -0.955560
7.537519 23.603947 0.432506
1.097289 3.434123 -0.832319
7.537921 23.590996 1.297932
1.123402 3.513738 -0.717060
7.552040 23.606760 2.168435
7.560432 23.604637 3.043322
7.575167 23.636402 3.931199
6.887715 21.478485 -1.973380
7.584277 23.636400 4.825178
6.700203 20.868700 -1.148670
7.588240 23.620447 5.727704
7.561577 23.537451 -0.431528
7.596928 23.633289 6.651649
1.100250 3.406443 -0.959183
7.615746 23.578823 0.432506
1.113467 3.445300 -0.835918
7.623905 23.575945 1.298560
1.132035 3.498588 -0.714771
7.630107 23.566984 2.167215
7.631942 23.558661 3.040640
7.641179 23.559080 3.922751
7.036446 21.681726 -1.994298
7.649268 23.570042 4.816782
6.769981 20.848265 -1.148774
7.650876 23.546965 5.716006
7.644923 23.514715 -0.431598
7.666214 23.566217 6.640262
1.107942 3.391757 -0.956078
7.710437 23.590109 0.433204
1.125484 3.441393 -0.835918
7.688381 23.508772 1.296257
1.145463 3.500412 -0.715915
7.690851 23.488535 2.162334
7.703625 23.499805 3.036497
7.706944 23.496075 3.916494
7.112651 21.671526 -1.995518
7.718639 23.504026 4.808769
6.850202 20.847275 -1.150030
7.717183 23.471989 5.704309
7.706615 23.439846 -0.430690
7.728630 23.492950 6.626803
1.120382 3.389703 -0.956595
7.755995 23.465677 0.431389
1.139338 3.445042 -0.837718
7.754088 23.432491 1.293536
1.158293 3.498255 -0.716297
7.755246 23.408592 2.157453
7.764642 23.423258 3.029916
7.775841 23.429659 3.909924
7.195796 21.669254 -1.997610
7.782922 23.437311 4.800373
6.938825 20.883198 -1.153275
7.785146 23.416677 5.697111
7.772614 23.365362 -0.429818
7.795953 23.421833 6.614380
1.134064 3.393299 -0.958666
7.831501 23.419502 0.431040
1.148884 3.433651 -0.835918
7.824416 23.371191 1.291651
1.171132 3.498120 -0.717060
7.822065 23.350632 2.154490
7.829952 23.347076 3.023579
7.842494 23.357428 3.902415
7.279035 21.679268 -2.000747
7.846560 23.356028 4.789306
7.104577 21.135258 -1.168557
7.855041 23.354263 5.688562
7.843291 23.305866 -0.429224
7.866560 23.361523 6.605062
1.148377 3.396640 -0.960736
7.908082 23.376865 0.430760
1.160862 3.429621 -0.835918
7.889939 23.296442 1.289035
1.183336 3.494010 -0.717060
7.891384 23.287331 2.151178
7.895452 23.272608 3.017485
7.913810 23.299986 3.897409
7.362990 21.678253 -2.003013
7.915401 23.291323 4.781674
7.165454 21.072506 -1.166464
7.918318 23.273199 5.675515
7.911702 23.240490 -0.428526
7.936220 23.299177 6.595227
1.162103 3.398094 -0.962289
7.962439 23.269657 0.429294
1.174719 3.431079 -0.837268
7.951799 23.212074 1.285895
1.196799 3.493572 -0.717823
7.957114 23.214409 2.146995
7.967626 23.218616 3.014073
7.980979 23.231115 3.890526
7.449526 21.671848 -2.004931
7.981344 23.218988 4.772515
7.240912 21.053034 -1.166778
7.994430 23.230677 5.671916
7.975858 23.163568 -0.427619
7.999876 23.220194 6.580733
1.170758 3.382858 -0.959183
8.029235 23.200146 0.428526
1.188603 3.432481 -0.838618
8.021655 23.152094 1.284115
1.209595 3.489162 -0.717823
8.024523 23.134264 2.142288
8.034303 23.149406 3.008711
8.041920 23.145271 3.880826
7.533630 21.670177 -2.007197
8.052197 23.148787 4.764119
8.035589 23.088055 -1.281184
8.085924 23.219624 5.676415
8.040876 23.090265 -0.426781
8.065631 23.148342 6.568310
1.183837 3.382397 -0.960219
8.090415 23.102617 0.427270
1.202465 3.431780 -0.839517
8.091861 23.093790 1.282440
1.223716 3.490477 -0.718968
8.108520 23.115515 2.143160
8.130282 23.151644 3.012854
8.120039 23.109608 3.879575
7.471124 21.250906 -1.970766
8.119929 23.083496 4.756487
8.108171 23.037260 -1.279928
8.198003 23.279486 5.698010
8.116120 23.046967 -0.426502
8.131626 23.078138 6.556404
1.198858 3.387351 -0.962807
1.211887 3.422263 -0.838168
8.159067 23.027758 1.280347
1.238516 3.493586 -0.720495
8.207149 23.137766 2.147866
8.218293 23.156359 3.016998
8.188098 23.045753 3.873631
1.717803 4.832158 -0.448678
8.179988 23.010197 4.746946
8.160431 22.942497 -1.276160
8.235947 23.142015 5.671016
8.201881 23.033567 -0.426781
8.199162 23.013220 6.546052
1.210084 3.383357 -0.962807
1.225138 3.421681 -0.839067
8.219198 22.942728 1.277207
1.254729 3.502398 -0.723166
8.269047 23.069157 2.144031
1.298383 3.620272 -0.609156
8.307115 23.149954 3.019922
8.252459 22.972416 3.866122
1.735164 4.830185 -0.449026
8.248964 22.950098 4.740459
8.226954 22.876284 -1.274067
8.302169 23.072784 5.661118
8.297809 23.048073 -0.427584
8.265045 22.944469 6.534664
1.225829 3.390012 -0.965913
1.238402 3.421048 -0.839967
8.286997 22.880095 1.275323
1.262936 3.486921 -0.720876
8.325069 22.972725 2.137756
1.298893 3.582290 -0.603524
8.367569 23.064831 3.012610
8.315072 22.895193 3.857987
8.314951 22.882414 4.732445
8.295140 22.815523 -1.272287
8.354672 22.966749 5.642222
8.360435 22.970108 -0.426676
8.337137 22.893703 6.528452
1.233675 3.374826 -0.962807
1.253686 3.425854 -0.842217
8.347730 22.811220 1.273020
1.275099 3.482491 -0.720876
8.379171 22.872433 2.131132
1.314110 3.585153 -0.604776
8.427520 22.979572 3.005298
8.372572 22.817425 3.849540
1.678205 4.571070 -0.426017
8.384615 22.825609 4.726721
8.363712 22.756432 -1.270612
8.406582 22.873072 5.626026
8.424144 22.908472 -0.426048
8.395673 22.818790 6.514993
1.245528 3.372529 -0.963324
1.268418 3.430818 -0.844466
8.413629 22.757191 1.271555
1.288683 3.483768 -0.722021
8.439765 22.803411 2.127297
1.323247 3.573366 -0.603524
8.492637 22.921719 3.001398
8.442018 22.772861 3.846724
1.680882 4.531856 -0.422880
8.442498 22.749825 4.716799
8.425231 22.691120 -1.268519
8.474251 22.823143 5.620627
8.488917 22.850420 -0.425490
8.453119 22.741936 6.501017
1.259407 3.375620 -0.965395
1.275694 3.415640 -0.841767
8.476230 22.682781 1.269042
1.302292 3.484992 -0.723166
8.506959 22.752903 2.125206
1.336471 3.572659 -0.604150
8.550516 22.845089 2.995061
8.506908 22.704405 3.840154
1.686115 4.500136 -0.420439
8.502049 22.679419 4.708022
8.484996 22.621918 -1.266216
8.549766 22.782475 5.617928
8.551753 22.775721 -0.424652
8.519549 22.677925 6.491182
1.273910 3.378433 -0.967466
1.286922 3.409343 -0.841317
8.540543 22.613815 1.266844
1.315143 3.482261 -0.723548
8.570832 22.682070 2.121371
1.347538 3.564277 -0.603524
8.590883 22.711124 2.981412
8.572804 22.639481 3.834209
1.691933 4.468138 -0.417999
8.569344 22.618389 4.701534
8.544791 22.541740 -1.263390
8.607110 22.694191 5.603531
8.622696 22.723293 -0.424233
8.584265 22.610119 6.480312
1.287756 3.379382 -0.969019
1.302289 3.413934 -0.843566
8.606605 22.550282 1.264960
1.325189 3.472147 -0.722403
8.634324 22.611065 2.117536
1.355742 3.548479 -0.601647
8.650256 22.629084 2.974587
8.635547 22.566982 3.827013
1.706096 4.458483 -0.417650
8.637009 22.559008 4.695428
8.615571 22.491257 -1.262239
8.673726 22.631250 5.595432
8.684774 22.648247 -0.423395
8.651367 22.549355 6.471512
1.295380 3.364049 -0.965913
1.317702 3.418459 -0.845816
8.665858 22.469788 1.262134
1.339420 3.472996 -0.723548
8.693122 22.528738 2.112655
1.373099 3.556625 -0.603837
8.713453 22.558012 2.969225
8.697165 22.492483 3.819504
1.692906 4.378169 -0.410678
8.701530 22.492100 4.687796
8.683219 22.433105 -1.260669
8.706923 22.482718 5.566189
8.747879 22.576777 -0.422627
8.715369 22.481194 6.460641
1.307114 3.359507 -0.965913
1.332456 3.421101 -0.847616
8.734818 22.415209 1.260773
1.354387 3.475616 -0.725074
8.742755 22.424006 2.105683
1.386943 3.555490 -0.604463
8.763279 22.453487 2.959475
8.755504 22.410467 3.810744
1.712530 4.383367 -0.411724
8.761411 22.414045 4.677874
8.747646 22.367319 -1.258680
8.768312 22.408630 5.555391
8.814976 22.516306 -0.422069
8.777579 22.409260 6.448735
1.325195 3.371105 -0.970571
1.342962 3.412803 -0.846716
8.801297 22.354849 1.259099
1.369387 3.478174 -0.726601
8.791032 22.317348 2.098536
1.395723 3.541439 -0.602898
8.808830 22.339663 2.948507
8.822805 22.352207 3.806051
1.721969 4.362536 -0.410329
8.825891 22.348633 4.670623
8.804379 22.282782 -1.255644
8.835738 22.350700 5.548643
8.822906 22.306885 -0.418718
8.840106 22.338968 6.437348
1.337668 3.368254 -0.971089
8.864579 22.309723 0.419032
1.353428 3.404472 -0.845816
8.863781 22.285015 1.256900
1.385149 3.482494 -0.728509
8.866666 22.280973 2.098013
1.413192 3.549392 -0.605089
8.871336 22.270046 2.943388
8.883209 22.277235 3.798542
1.715047 4.300979 -0.405100
8.887122 22.275747 4.661846
8.873219 22.229654 -1.254388
8.892017 22.265434 5.535146
8.889596 22.248095 -0.418195
8.906562 22.279272 6.429066
1.350856 3.367150 -0.972124
8.936448 22.263796 0.418753
